# .PCD v0.7 - Point Cloud Data file format
VERSION 0.7
FIELDS x y z rgb
SIZE 4 4 4 4
TYPE F F F U
COUNT 1 1 1 1
WIDTH 1164
HEIGHT 1
VIEWPOINT 0 0 0 1 0 0 0
POINTS 1164
DATA ascii
-0.87339884 -1.6483438 0.7746979 5589295
-0.87666076 -1.6483438 0.7746979 5589296
-0.87992269 -1.6483438 0.7746979 5655089
-0.88318455 -1.6483437 0.77469796 5655090
-0.88644648 -1.6483437 0.77469796 5655346
-0.8897084 -1.6483437 0.77469796 5655347
-0.89297032 -1.6483437 0.77469796 5655346
-0.89623231 -1.6483438 0.7746979 5655090
-0.89949423 -1.6483438 0.7746979 5589553
-0.90275615 -1.6483438 0.7746979 5589554
-0.90601808 -1.6483438 0.7746979 5589554
-0.90928 -1.6483438 0.7746979 5589554
-0.91254193 -1.6483438 0.7746979 5655090
0.91437387 -1.6413853 0.77470064 5654310
0.91112298 -1.6413854 0.77470058 5654310
0.90787208 -1.6413854 0.77470058 5654310
0.90462112 -1.6413853 0.77470064 5654054
0.90137029 -1.6413854 0.77470058 5654053
0.89811939 -1.6413854 0.77470058 5654053
0.89486849 -1.6413854 0.77470058 5654053
0.89161754 -1.6413854 0.77470058 5654053
0.88836664 -1.6413854 0.77470058 5654054
0.88511574 -1.6413854 0.77470058 5588518
0.88186485 -1.6413854 0.77470058 5588518
0.87861395 -1.6413854 0.77470058 5588518
0.87536305 -1.6413856 0.77470052 5588518
0.87211215 -1.6413856 0.77470052 5654055
0.86886126 -1.6413856 0.77470052 5654311
0.86561036 -1.6413856 0.77470052 5654312
0.86235946 -1.6413856 0.77470052 5654569
0.85910857 -1.6413856 0.77470052 5720105
0.85585767 -1.6413857 0.77470046 5720362
0.85260677 -1.6413857 0.77470046 5785899
0.84935588 -1.6413857 0.77470046 5785898
0.84610498 -1.6413857 0.77470046 5785898
0.84285402 -1.6413856 0.77470052 5785640
0.83960319 -1.6413857 0.77470046 5720104
0.83635223 -1.6413857 0.77470046 5654312
0.83310133 -1.6413857 0.77470046 5654312
0.82985044 -1.6413857 0.77470046 5588519
0.82659954 -1.6413857 0.77470046 5588519
0.82334864 -1.6413857 0.77470046 5588519
0.82009774 -1.6413857 0.77470046 5588777
0.81684679 -1.6413857 0.77470046 5654570
0.81359589 -1.6413857 0.77470046 5654572
0.81034505 -1.6413857 0.77470046 5720365
0.80709416 -1.6413857 0.77470046 5720622
0.80384326 -1.6413857 0.77470046 5720623
0.8005923 -1.6413857 0.77470046 5720623
0.79734141 -1.6413857 0.77470046 5720624
0.79409051 -1.6413857 0.77470046 5720623
0.79083961 -1.6413857 0.77470046 5720622
0.78758872 -1.6413857 0.77470046 5786157
0.78433776 -1.6413857 0.77470046 5786156
0.78108686 -1.6413857 0.77470046 5786156
0.77783602 -1.6413858 0.7747004 5786156
0.77458513 -1.6413858 0.7747004 5785900
0.77133423 -1.6413858 0.7747004 5785899
0.76808327 -1.6413858 0.7747004 5785899
0.76483238 -1.6413858 0.7747004 5720363
0.76158148 -1.6413858 0.7747004 5720106
0.75833064 -1.6413859 0.7747004 5720106
0.75507975 -1.6413859 0.7747004 5654569
0.75182879 -1.6413859 0.7747004 5654569
0.74857789 -1.6413859 0.7747004 5720105
0.745327 -1.6413859 0.7747004 5720104
0.7420761 -1.6413859 0.7747004 5785640
0.7388252 -1.6413859 0.7747004 5785639
0.73557425 -1.6413859 0.7747004 5785640
0.73232335 -1.6413859 0.7747004 5785896
0.72907245 -1.6413859 0.7747004 5785897
0.72582155 -1.6413859 0.7747004 5785897
0.72257072 -1.641386 0.77470034 5785897
0.71931976 -1.6413859 0.7747004 5785897
0.71606886 -1.641386 0.77470034 5785641
0.71281797 -1.641386 0.77470034 5720104
0.70956707 -1.641386 0.77470034 5654312
0.70631617 -1.641386 0.77470034 5654570
0.70306522 -1.641386 0.77470034 5720363
0.69981432 -1.641386 0.77470034 5720365
0.69656342 -1.641386 0.77470034 5654828
0.69331253 -1.641386 0.77470034 5654827
0.69006163 -1.6413862 0.77470028 5654570
0.68681067 -1.641386 0.77470034 5654570
0.68355978 -1.641386 0.77470034 5654570
0.68030894 -1.6413862 0.77470028 5589034
0.67705804 -1.6413862 0.77470028 5588777
0.67380708 -1.6413862 0.77470028 5588776
0.67055619 -1.6413862 0.77470028 5654313
0.66730529 -1.6413862 0.77470028 5654570
0.66405439 -1.6413862 0.77470028 5654828
0.6608035 -1.6413863 0.77470022 5720621
0.65755254 -1.6413862 0.77470028 5720622
0.65430164 -1.6413862 0.77470028 5720622
0.65105081 -1.6413863 0.77470022 5720621
0.64779991 -1.6413863 0.77470022 5720620
0.64454895 -1.6413863 0.77470022 5720364
0.64129806 -1.6413863 0.77470022 5720364
0.63804716 -1.6413863 0.77470022 5720365
0.63479626 -1.6413863 0.77470022 5655086
0.63154536 -1.6413863 0.77470022 5654830
0.62829441 -1.6413863 0.77470022 5654830
0.62504351 -1.6413863 0.77470022 5654830
0.62179261 -1.6413863 0.77470022 5589037
0.61854178 -1.6413864 0.77470016 5588779
0.61529082 -1.6413864 0.77470016 5588777
0.61203992 -1.6413864 0.77470016 5588777
0.60878903 -1.6413864 0.77470016 5654314
0.60553813 -1.6413864 0.77470016 5654571
0.60228723 -1.6413864 0.77470016 5654829
0.59903634 -1.6413865 0.77470011 5654830
0.59578544 -1.6413865 0.77470011 5655087
0.59253454 -1.6413865 0.77470011 5654830
0.58928359 -1.6413865 0.77470011 5654572
0.58603269 -1.6413865 0.77470011 5654314
0.58278179 -1.6413865 0.77470011 5588776
0.57953089 -1.6413865 0.77470011 5588519
0.57628 -1.6413865 0.77470011 5588518
0.57302904 -1.6413865 0.77470011 5654054
0.56977814 -1.6413865 0.77470011 5654054
0.56652725 -1.6413865 0.77470011 5654053
0.56327635 -1.6413865 0.77470011 5719845
0.56002545 -1.6413865 0.77470011 5719846
0.55677456 -1.6413866 0.77470005 5719846
0.55352366 -1.6413866 0.77470005 5720103
0.55027276 -1.6413866 0.77470005 5720104
0.54702181 -1.6413866 0.77470005 5720361
0.54377091 -1.6413866 0.77470005 5720105
0.54052001 -1.6413866 0.77470005 5720104
0.53726912 -1.6413866 0.77469999 5720104
0.53401822 -1.6413866 0.77470005 5720105
0.53076726 -1.6413866 0.77470005 5720361
0.52751637 -1.6413866 0.77470005 5720362
0.52426547 -1.6413866 0.77470005 5720363
0.52101457 -1.6413866 0.77470005 5654828
0.51776367 -1.6413866 0.77469999 5654828
0.51451278 -1.6413866 0.77469999 5654571
0.51126182 -1.6413866 0.77469999 5654570
0.50801092 -1.6413866 0.77469999 5654571
0.50476003 -1.6413866 0.77469999 5589036
0.50150913 -1.6413866 0.77469999 5589294
0.49825823 -1.6413866 0.77469999 5654830
0.49500728 -1.6413866 0.77469999 5654830
0.49175644 -1.6413867 0.77469993 5720366
0.48850554 -1.6413867 0.77469993 5720623
0.48525459 -1.6413867 0.77469993 5720625
0.48200369 -1.6413867 0.77469993 5720882
0.47875279 -1.6413867 0.77469993 5655347
0.36172014 -1.6413872 0.77469969 5654573
0.35846925 -1.6413872 0.77469969 5589037
0.35521829 -1.6413872 0.77469969 5589036
0.35196739 -1.6413872 0.77469969 5589036
0.3487165 -1.6413872 0.77469969 5589037
0.3454656 -1.6413873 0.77469963 5589294
0.3422147 -1.6413873 0.77469963 5654831
0.33896381 -1.6413873 0.77469963 5655088
0.33571285 -1.6413873 0.77469963 5655089
0.33246195 -1.6413873 0.77469963 5655089
0.32921106 -1.6413873 0.77469963 5655088
0.32596016 -1.6413873 0.77469963 5589552
0.3227092 -1.6413873 0.77469963 5589296
0.31945831 -1.6413873 0.77469963 5589296
0.31620741 -1.6413873 0.77469963 5589296
0.31295651 -1.6413873 0.77469963 5523759
0.30970562 -1.6413873 0.77469963 5523502
0.30645466 -1.6413873 0.77469963 5589295
0.30320376 -1.6413875 0.77469957 5589295
0.29995286 -1.6413875 0.77469957 5589552
0.29670197 -1.6413875 0.77469957 5589295
0.29345107 -1.6413875 0.77469957 5589294
0.29020011 -1.6413875 0.77469957 5589293
0.28694922 -1.6413875 0.77469957 5654829
0.28369832 -1.6413875 0.77469957 5654828
0.28044742 -1.6413875 0.77469957 5654828
0.27719653 -1.6413875 0.77469951 5654829
0.27394563 -1.6413875 0.77469951 5655085
0.27069467 -1.6413875 0.77469957 5655085
0.26744378 -1.6413875 0.77469957 5654828
0.26419288 -1.6413875 0.77469951 5654827
0.26094195 -1.6413875 0.77469951 5654570
0.25769103 -1.6413875 0.77469951 5654313
0.25444013 -1.6413875 0.77469951 5588775
0.25118923 -1.6413875 0.77469951 5588519
0.24793832 -1.6413875 0.77469951 5654313
0.24468741 -1.6413875 0.77469951 5654570
0.24143651 -1.6413877 0.77469945 5720107
0.2056765 -1.6413878 0.77469939 5720621
0.20242558 -1.6413878 0.77469939 5720621
0.19917467 -1.6413878 0.77469939 5720364
0.19592376 -1.6413878 0.77469939 5720363
0.19267285 -1.6413878 0.77469939 5720363
0.18942194 -1.6413878 0.77469939 5720362
0.18617103 -1.6413878 0.77469939 5720105
0.18292013 -1.6413879 0.77469933 5720104
0.17966922 -1.6413879 0.77469933 5720104
0.1764183 -1.6413879 0.77469933 5720104
0.17316739 -1.6413879 0.77469933 5720104
0.16991648 -1.6413879 0.77469933 5720103
0.16666557 -1.6413879 0.77469933 5720103
0.16341466 -1.6413879 0.77469933 5785640
0.16016375 -1.6413879 0.77469933 5785897
0.15691283 -1.6413879 0.77469933 5785898
0.15366192 -1.6413879 0.77469933 5785898
0.15041101 -1.6413879 0.77469933 5720362
0.1471601 -1.6413879 0.77469933 5720105
0.14390919 -1.6413881 0.77469927 5720362
0.14065829 -1.6413881 0.77469927 5720363
0.13740736 -1.6413881 0.77469927 5720364
0.13415647 -1.6413881 0.77469927 5720621
0.13090554 -1.6413881 0.77469927 5720621
0.12765464 -1.6413881 0.77469927 5720622
0.12440372 -1.6413881 0.77469927 5720622
0.12115282 -1.6413882 0.77469921 5786158
0.11790191 -1.6413882 0.77469921 5786157
0.11465099 -1.6413881 0.77469927 5786157
0.11140008 -1.6413881 0.77469927 5851693
0.10814917 -1.6413882 0.77469921 5851693
-0.077152856 -1.6413888 0.77469891 5654311
-0.080403775 -1.6413888 0.77469891 5720105
-0.083654687 -1.6413888 0.77469891 5720105
-0.086905599 -1.6413888 0.77469891 5720105
-0.09015651 -1.6413888 0.77469891 5720105
-0.093407422 -1.6413888 0.77469891 5720106
-0.096658342 -1.6413888 0.77469891 5720364
-0.099909253 -1.6413888 0.77469891 5720621
-0.10316016 -1.6413888 0.77469891 5720621
-0.10641108 -1.6413888 0.77469891 5720621
-0.109662 -1.6413888 0.77469891 5720621
-0.11291291 -1.6413888 0.77469891 5720621
-0.11616383 -1.6413889 0.77469885 5720620
-0.11941475 -1.6413889 0.77469885 5720364
-0.12266566 -1.6413889 0.77469885 5720363
-0.12591657 -1.6413889 0.77469885 5720362
-0.12916748 -1.6413889 0.77469885 5720106
-0.28521144 -1.6413894 0.77469856 5654311
-0.28846234 -1.6413894 0.77469856 5719847
-0.29171324 -1.6413894 0.77469856 5719848
-0.29496419 -1.6413894 0.77469856 5654311
-0.29821509 -1.6413894 0.77469856 5654311
-0.30146605 -1.6413895 0.7746985 5654311
-0.30471694 -1.6413894 0.77469856 5654310
-0.30796784 -1.6413895 0.7746985 5654310
-0.3112188 -1.6413895 0.7746985 5654310
-0.3144697 -1.6413895 0.7746985 5654054
-0.31772059 -1.6413895 0.7746985 5654053
-0.32097155 -1.6413895 0.7746985 5654053
-0.32422245 -1.6413895 0.7746985 5654053
-0.32747334 -1.6413895 0.7746985 5654053
-0.33072424 -1.6413895 0.7746985 5654054
-0.3339752 -1.6413895 0.7746985 5588518
-0.33722609 -1.6413895 0.7746985 5588518
-0.34047699 -1.6413895 0.7746985 5588518
-0.34372795 -1.6413895 0.7746985 5588518
-0.34697884 -1.6413895 0.7746985 5654055
-0.35022974 -1.6413895 0.7746985 5654311
-0.3534807 -1.6413896 0.77469844 5654312
-0.35673159 -1.6413896 0.77469844 5654313
-0.35998255 -1.6413896 0.77469844 5720105
-0.36323345 -1.6413896 0.77469844 5720362
-0.36648434 -1.6413896 0.77469844 5785899
-0.36973524 -1.6413896 0.77469844 5785898
-0.3729862 -1.6413896 0.77469844 5785898
-0.37623709 -1.6413896 0.77469844 5785640
-0.37948799 -1.6413896 0.77469844 5720104
-0.38273895 -1.6413896 0.77469844 5654312
-0.38598984 -1.6413896 0.77469844 5654312
-0.38924074 -1.6413896 0.77469844 5588519
-0.3924917 -1.6413896 0.77469844 5588519
-0.3957426 -1.6413896 0.77469844 5588519
-0.39899349 -1.6413896 0.77469844 5588777
-0.40224445 -1.6413896 0.77469844 5654570
-0.40549535 -1.6413897 0.77469838 5654571
-0.4087463 -1.6413897 0.77469838 5720365
-0.4119972 -1.6413897 0.77469838 5720622
-0.4152481 -1.6413897 0.77469838 5720623
-0.41849905 -1.6413897 0.77469838 5720623
-0.42174995 -1.6413897 0.77469838 5720624
-0.42500085 -1.6413897 0.77469838 5720623
-0.42825174 -1.6413897 0.77469838 5720622
-0.4315027 -1.6413897 0.77469838 5786157
-0.4347536 -1.6413897 0.77469838 5786156
-0.43800449 -1.6413897 0.77469838 5786156
-0.44125545 -1.6413898 0.77469832 5786156
-0.44450641 -1.6413898 0.77469832 5785900
-0.4477573 -1.6413898 0.77469832 5785899
-0.4510082 -1.6413897 0.77469838 5785899
-0.4542591 -1.6413897 0.77469838 5720363
-0.45751005 -1.6413898 0.77469832 5720106
-0.46076095 -1.6413898 0.77469832 5720106
-0.46401185 -1.6413898 0.77469832 5654569
-0.4672628 -1.6413898 0.77469832 5654569
-0.4705137 -1.6413898 0.77469832 5720105
-0.4737646 -1.6413898 0.77469832 5720104
-0.47701555 -1.6413898 0.77469832 5720104
-0.48026645 -1.6413898 0.77469832 5785639
-0.48351735 -1.6413898 0.77469832 5785640
-0.48676825 -1.6413898 0.77469832 5785896
-0.4900192 -1.6413898 0.77469832 5785897
-0.49327016 -1.64139 0.77469826 5785897
-0.49652106 -1.64139 0.77469826 5785897
-0.49977195 -1.64139 0.77469826 5785897
-0.50302285 -1.64139 0.77469826 5785641
-0.50627381 -1.64139 0.77469826 5720104
-0.5095247 -1.64139 0.77469826 5654312
-0.5127756 -1.64139 0.77469826 5654570
-0.51602656 -1.64139 0.77469826 5720363
-0.51927745 -1.64139 0.77469826 5720365
-0.52252835 -1.64139 0.77469826 5654828
-0.52577931 -1.64139 0.77469826 5654827
-0.5290302 -1.64139 0.77469826 5654570
-0.5322811 -1.64139 0.77469826 5654570
-0.53553206 -1.64139 0.77469826 5654570
-0.53878295 -1.64139 0.77469826 5589034
-0.54203385 -1.64139 0.77469826 5588777
-0.54528481 -1.6413901 0.7746982 5588776
-0.54853576 -1.6413901 0.7746982 5654313
-0.55178666 -1.6413901 0.7746982 5654570
-0.55503756 -1.6413901 0.7746982 5654828
-0.55734032 -1.6387898 0.77607942 2236962
-0.55922782 -1.6350859 0.77804673 2302755
-0.56110656 -1.6313995 0.78000492 2829356
-0.56297654 -1.6277301 0.78195393 3355700
-0.56483787 -1.6240777 0.78389406 3553079
-0.84762037 -1.6413907 0.77469784 5655088
-0.85087126 -1.6413907 0.77469784 5654831
-0.85412216 -1.6413907 0.77469784 5654830
-0.85737312 -1.6413907 0.77469784 5654573
-0.86062402 -1.6413907 0.77469784 5589037
-0.86387491 -1.6413907 0.77469784 5589036
-0.86712587 -1.6413907 0.77469784 5589036
-0.87037677 -1.6413907 0.77469784 5589037
-0.87362772 -1.6413908 0.77469778 5589294
-0.87687868 -1.6413908 0.77469778 5654831
-0.88012958 -1.6413908 0.77469778 5655088
-0.88338047 -1.6413908 0.77469778 5655089
-0.88663143 -1.6413908 0.77469778 5655089
-0.88988233 -1.6413908 0.77469778 5655088
-0.89313322 -1.6413908 0.77469778 5589552
-0.89638418 -1.6413908 0.77469778 5589296
-0.89963508 -1.6413908 0.77469778 5589296
-0.90288597 -1.6413908 0.77469778 5589296
-0.90613693 -1.6413908 0.77469778 5523759
-0.90938789 -1.6413909 0.77469772 5523502
-0.91263884 -1.6413909 0.77469772 5589295
0.91137224 -1.6344792 0.77470064 5654311
0.90813226 -1.6344792 0.77470064 5654311
0.90489227 -1.6344792 0.77470064 5654311
0.90165228 -1.6344792 0.77470064 5654311
0.89841235 -1.6344792 0.77470064 5654311
0.89517242 -1.6344793 0.77470058 5654310
0.89193243 -1.6344793 0.77470058 5588518
0.8886925 -1.6344793 0.77470058 5588517
0.88545251 -1.6344793 0.77470058 5588517
0.88221252 -1.6344793 0.77470058 5588518
0.87897253 -1.6344793 0.77470058 5588518
0.8757326 -1.6344793 0.77470058 5588518
0.87249261 -1.6344793 0.77470058 5654054
0.86925262 -1.6344793 0.77470058 5654054
0.86601275 -1.6344794 0.77470052 5654054
0.86277276 -1.6344794 0.77470052 5654054
0.85953271 -1.6344793 0.77470058 5719847
0.85629278 -1.6344793 0.77470058 5720104
0.85305279 -1.6344793 0.77470058 5720362
0.84981287 -1.6344794 0.77470052 5720362
0.84657282 -1.6344793 0.77470058 5720361
0.84333295 -1.6344794 0.77470052 5720104
0.84009296 -1.6344794 0.77470052 5654568
0.83685297 -1.6344794 0.77470052 5654311
0.83361298 -1.6344794 0.77470052 5588519
0.83037305 -1.6344794 0.77470052 5588518
0.82713306 -1.6344794 0.77470052 5522982
0.82389313 -1.6344794 0.77470046 5588518
0.8206532 -1.6344794 0.77470046 5588777
0.81741321 -1.6344794 0.77470046 5654571
0.81417322 -1.6344794 0.77470046 5654830
0.81093323 -1.6344794 0.77470046 5720365
0.8076933 -1.6344794 0.77470046 5720365
0.80445331 -1.6344794 0.77470046 5720364
0.80121332 -1.6344794 0.77470046 5654829
0.79797339 -1.6344794 0.77470046 5654831
0.79473346 -1.6344795 0.7747004 5589295
0.79149342 -1.6344794 0.77470046 5654832
0.78825349 -1.6344795 0.7747004 5655087
0.78501356 -1.6344795 0.7747004 5655087
0.78177357 -1.6344795 0.7747004 5720365
0.77853358 -1.6344795 0.7747004 5720364
0.77529359 -1.6344795 0.7747004 5785898
0.77205366 -1.6344795 0.7747004 5785898
0.76881373 -1.6344796 0.77470034 5720362
0.76557374 -1.6344796 0.77470034 5720362
0.76233375 -1.6344796 0.77470034 5720362
0.75909382 -1.6344796 0.77470034 5720363
0.75585383 -1.6344796 0.77470034 5654570
0.75261384 -1.6344796 0.77470034 5654570
0.74937385 -1.6344796 0.77470034 5720104
0.74613392 -1.6344796 0.77470034 5720104
0.74289393 -1.6344796 0.77470034 5720103
0.73965394 -1.6344796 0.77470034 5785639
0.73641402 -1.6344796 0.77470034 5785639
0.73317409 -1.6344798 0.77470034 5785639
0.7299341 -1.6344798 0.77470034 5785639
0.72669411 -1.6344798 0.77470034 5785896
0.72345412 -1.6344798 0.77470034 5785898
0.72021419 -1.6344798 0.77470034 5786155
0.7169742 -1.6344798 0.77470034 5785898
0.71373421 -1.6344798 0.77470034 5720105
0.71049428 -1.6344798 0.77470034 5719847
0.70725435 -1.6344799 0.77470028 5654568
0.7040143 -1.6344798 0.77470034 5654570
0.70077437 -1.6344799 0.77470028 5654828
0.69753438 -1.6344799 0.77470028 5654571
0.69429445 -1.6344799 0.77470028 5588777
0.69105446 -1.6344799 0.77470028 5588519
0.68781447 -1.6344799 0.77470028 5588519
0.68457448 -1.6344799 0.77470028 5588519
0.68133456 -1.6344799 0.77470028 5588520
0.67809457 -1.6344799 0.77470028 5588520
0.67485464 -1.63448 0.77470022 5588519
0.67161465 -1.63448 0.77470022 5588520
0.66837472 -1.63448 0.77470022 5654314
0.66513473 -1.63448 0.77470022 5654572
0.66189474 -1.63448 0.77470022 5720366
0.65865475 -1.63448 0.77470022 5720623
0.65541482 -1.63448 0.77470022 5720624
0.65217483 -1.63448 0.77470022 5720623
0.64893484 -1.63448 0.77470022 5720622
0.64569485 -1.63448 0.77470022 5720364
0.64245492 -1.63448 0.77470022 5720107
0.63921493 -1.63448 0.77470022 5654827
0.635975 -1.6344801 0.77470016 5654828
0.63273501 -1.6344801 0.77470016 5654829
0.62949502 -1.6344801 0.77470016 5654829
0.6262551 -1.6344801 0.77470016 5654829
0.62301511 -1.6344801 0.77470016 5654829
0.61977512 -1.6344801 0.77470016 5654572
0.61653513 -1.6344801 0.77470016 5654571
0.6132952 -1.6344801 0.77470016 5654570
0.61005527 -1.6344802 0.77470011 5654570
0.60681528 -1.6344802 0.77470011 5654570
0.60357529 -1.6344802 0.77470011 5654571
0.6003353 -1.6344801 0.77470016 5654828
0.59709537 -1.6344802 0.77470011 5654829
0.59385538 -1.6344802 0.77470011 5654829
0.59061539 -1.6344802 0.77470011 5654829
0.58737546 -1.6344802 0.77470011 5654829
0.58413547 -1.6344802 0.77470011 5654572
0.58089548 -1.6344802 0.77470011 5654571
0.57765549 -1.6344802 0.77470011 5654569
0.57441556 -1.6344802 0.77470011 5654568
0.57117558 -1.6344802 0.77470011 5720103
0.56793565 -1.6344802 0.77470005 5719846
0.56469566 -1.6344802 0.77470005 5720102
0.56145567 -1.6344802 0.77470005 5720103
0.55821568 -1.6344802 0.77470005 5720104
0.55497575 -1.6344802 0.77470005 5720361
0.55173576 -1.6344802 0.77470005 5720363
0.54849577 -1.6344802 0.77470005 5720620
0.54525578 -1.6344802 0.77470005 5720620
0.54201585 -1.6344804 0.77469999 5720619
0.53877592 -1.6344804 0.77469999 5720362
0.53553593 -1.6344804 0.77469999 5720362
0.53229594 -1.6344804 0.77469999 5720362
0.52905595 -1.6344804 0.77469999 5720362
0.52581602 -1.6344804 0.77469999 5720362
0.52257603 -1.6344804 0.77469999 5654827
0.51933604 -1.6344804 0.77469999 5654571
0.51609606 -1.6344804 0.77469999 5654571
0.51285613 -1.6344805 0.77469993 5654571
0.50961614 -1.6344805 0.77469993 5654571
0.50637615 -1.6344805 0.77469993 5654572
0.50313622 -1.6344805 0.77469993 5589293
0.49989623 -1.6344805 0.77469993 5589294
0.49665624 -1.6344805 0.77469993 5654830
0.49341625 -1.6344805 0.77469993 5654830
0.49017632 -1.6344805 0.77469993 5720365
0.48693633 -1.6344805 0.77469993 5720623
0.48369634 -1.6344805 0.77469993 5655087
0.48045635 -1.6344805 0.77469993 5655088
0.47721642 -1.6344805 0.77469993 5655088
0.3605774 -1.634481 0.77469969 5588777
0.35733742 -1.634481 0.77469969 5588521
0.35409749 -1.634481 0.77469969 5588521
0.3508575 -1.6344811 0.77469963 5588521
0.34761751 -1.6344811 0.77469963 5588778
0.34437758 -1.6344811 0.77469963 5589036
0.34113759 -1.634481 0.77469969 5654831
0.3378976 -1.6344811 0.77469963 5655089
0.33465761 -1.6344811 0.77469963 5655090
0.33141768 -1.6344811 0.77469963 5655090
0.32817769 -1.6344811 0.77469963 5655090
0.3249377 -1.6344811 0.77469963 5589296
0.32169771 -1.6344811 0.77469963 5589295
0.31845778 -1.6344811 0.77469963 5589038
0.31521779 -1.6344811 0.77469963 5523502
0.3119778 -1.6344811 0.77469957 5523502
0.30873787 -1.6344811 0.77469957 5523502
0.30549788 -1.6344811 0.77469957 5523759
0.3022579 -1.6344811 0.77469957 5589295
0.29901791 -1.6344811 0.77469957 5589295
0.29577792 -1.6344811 0.77469957 5589295
0.29253799 -1.6344811 0.77469957 5589294
0.289298 -1.6344811 0.77469957 5589294
0.28605801 -1.6344811 0.77469957 5654829
0.28281808 -1.6344812 0.77469951 5654828
0.27957809 -1.6344812 0.77469951 5654827
0.2763381 -1.6344812 0.77469951 5654828
0.27309811 -1.6344812 0.77469951 5720365
0.26985815 -1.6344812 0.77469951 5720622
0.26661819 -1.6344812 0.77469951 5720622
0.2633782 -1.6344812 0.77469951 5720623
0.26013821 -1.6344812 0.77469951 5720623
0.25689825 -1.6344812 0.77469951 5720366
0.25365829 -1.6344812 0.77469951 5720364
0.25041831 -1.6344813 0.77469945 5720364
0.24717835 -1.6344813 0.77469945 5720107
0.24393836 -1.6344813 0.77469945 5654571
0.20505866 -1.6344814 0.77469939 5720362
0.20181869 -1.6344814 0.77469939 5720362
0.19857872 -1.6344814 0.77469939 5720362
0.19533873 -1.6344814 0.77469939 5720361
0.19209877 -1.6344815 0.77469933 5720362
0.18885879 -1.6344815 0.77469933 5720362
0.18561882 -1.6344815 0.77469933 5720362
0.18237883 -1.6344814 0.77469939 5720106
0.17913887 -1.6344815 0.77469933 5720105
0.17589888 -1.6344815 0.77469933 5720105
0.17265891 -1.6344815 0.77469933 5785641
0.16941893 -1.6344815 0.77469933 5785641
0.16617896 -1.6344815 0.77469933 5785641
0.16293898 -1.6344815 0.77469933 5785641
0.15969901 -1.6344815 0.77469933 5785642
0.15645903 -1.6344815 0.77469933 5785898
0.15321906 -1.6344817 0.77469927 5720105
0.14997908 -1.6344817 0.77469927 5720105
0.1467391 -1.6344817 0.77469927 5654569
0.14349914 -1.6344817 0.77469927 5654570
0.14025915 -1.6344817 0.77469927 5654828
0.13701917 -1.6344817 0.77469927 5720365
0.1337792 -1.6344817 0.77469927 5720621
0.13053922 -1.6344817 0.77469927 5720621
0.12729925 -1.6344817 0.77469927 5720621
0.12405927 -1.6344817 0.77469927 5720620
0.12081929 -1.6344817 0.77469927 5720364
0.11757932 -1.6344818 0.77469921 5720363
0.11433934 -1.6344818 0.77469921 5720364
0.11109937 -1.6344818 0.77469921 5720364
0.10785939 -1.6344818 0.77469921 5720364
-0.07681933 -1.6344823 0.77469897 5654312
-0.080059312 -1.6344824 0.77469891 5654570
-0.083299287 -1.6344823 0.77469897 5720106
-0.086539268 -1.6344824 0.77469891 5720105
-0.08977925 -1.6344824 0.77469891 5720105
-0.093019225 -1.6344824 0.77469891 5720106
-0.096259207 -1.6344824 0.77469891 5720363
-0.099499188 -1.6344824 0.77469891 5720364
-0.10273916 -1.6344824 0.77469891 5720365
-0.10597914 -1.6344825 0.77469885 5720365
-0.10921913 -1.6344825 0.77469885 5720365
-0.11245911 -1.6344825 0.77469885 5720621
-0.11569908 -1.6344825 0.77469885 5720621
-0.11893906 -1.6344825 0.77469885 5720621
-0.12217905 -1.6344825 0.77469885 5720621
-0.12541902 -1.6344825 0.77469885 5720364
-0.128659 -1.6344825 0.77469885 5720363
-0.13189898 -1.6344825 0.77469885 5720106
-0.13513897 -1.6344826 0.77469879 5720104
-0.2776981 -1.634483 0.77469856 5654311
-0.28093809 -1.634483 0.77469856 5654312
-0.28417808 -1.634483 0.77469856 5654312
-0.28741807 -1.634483 0.77469856 5719848
-0.290658 -1.634483 0.77469856 5719847
-0.29389799 -1.634483 0.77469856 5654311
-0.29713798 -1.634483 0.77469856 5654310
-0.30037796 -1.6344831 0.7746985 5654054
-0.30361795 -1.6344831 0.7746985 5654310
-0.30685794 -1.6344831 0.7746985 5654310
-0.31009793 -1.6344831 0.7746985 5654311
-0.31333792 -1.6344831 0.7746985 5654311
-0.31657791 -1.6344831 0.7746985 5654311
-0.3198179 -1.6344832 0.77469844 5654311
-0.32305789 -1.6344832 0.77469844 5654311
-0.32629782 -1.6344832 0.77469844 5588518
-0.32953781 -1.6344832 0.77469844 5588517
-0.3327778 -1.6344832 0.77469844 5588517
-0.33601779 -1.6344831 0.7746985 5588518
-0.33925772 -1.6344831 0.7746985 5588518
-0.34249771 -1.6344831 0.7746985 5588518
-0.3457377 -1.6344831 0.7746985 5654054
-0.34897768 -1.6344831 0.7746985 5654054
-0.35221767 -1.6344832 0.77469844 5654054
-0.35545766 -1.6344832 0.77469844 5654054
-0.35869765 -1.6344832 0.77469844 5719847
-0.36193764 -1.6344832 0.77469844 5720104
-0.36517763 -1.6344832 0.77469844 5720105
-0.36841756 -1.6344832 0.77469844 5720362
-0.37165755 -1.6344832 0.77469844 5720361
-0.37489754 -1.6344832 0.77469844 5720104
-0.37813753 -1.6344832 0.77469844 5720104
-0.38137752 -1.6344832 0.77469844 5654311
-0.38461751 -1.6344832 0.77469844 5588519
-0.3878575 -1.6344832 0.77469844 5588518
-0.39109749 -1.6344833 0.77469838 5522726
-0.39433748 -1.6344833 0.77469838 5588518
-0.39757746 -1.6344833 0.77469838 5588776
-0.40081739 -1.6344833 0.77469838 5589035
-0.40405738 -1.6344833 0.77469838 5654829
-0.40729737 -1.6344833 0.77469838 5654829
-0.41053736 -1.6344833 0.77469838 5720365
-0.41377735 -1.6344833 0.77469838 5720364
-0.41701734 -1.6344833 0.77469838 5720365
-0.42025727 -1.6344833 0.77469838 5654830
-0.42349726 -1.6344833 0.77469838 5589295
-0.42673725 -1.6344833 0.77469838 5589296
-0.42997724 -1.6344833 0.77469838 5655088
-0.43321723 -1.6344833 0.77469838 5655087
-0.43645722 -1.6344833 0.77469838 5720622
-0.43969721 -1.6344835 0.77469832 5720364
-0.4429372 -1.6344835 0.77469832 5785898
-0.44617718 -1.6344835 0.77469832 5785898
-0.44941717 -1.6344835 0.77469832 5720362
-0.4526571 -1.6344835 0.77469832 5720362
-0.45589709 -1.6344835 0.77469832 5720362
-0.45913708 -1.6344835 0.77469832 5720363
-0.46237707 -1.6344835 0.77469832 5654827
-0.46561706 -1.6344835 0.77469832 5654570
-0.46885705 -1.6344835 0.77469832 5654569
-0.47209704 -1.6344835 0.77469832 5720104
-0.47533697 -1.6344835 0.77469832 5720104
-0.47857702 -1.6344836 0.77469826 5785639
-0.48181695 -1.6344836 0.77469826 5785639
-0.48505694 -1.6344836 0.77469826 5785639
-0.48829693 -1.6344836 0.77469826 5785639
-0.49153692 -1.6344836 0.77469826 5785640
-0.4947769 -1.6344836 0.77469826 5785897
-0.49801689 -1.6344836 0.77469826 5785898
-0.50125688 -1.6344836 0.77469826 5785899
-0.50449681 -1.6344836 0.77469826 5720361
-0.5077368 -1.6344836 0.77469826 5720104
-0.51097679 -1.6344836 0.77469826 5719848
-0.51421678 -1.6344836 0.77469826 5654569
-0.51745677 -1.6344836 0.77469826 5654571
-0.52069676 -1.6344836 0.77469826 5654571
-0.52393675 -1.6344836 0.77469826 5588777
-0.52717674 -1.6344838 0.7746982 5588519
-0.53041673 -1.6344838 0.7746982 5588519
-0.53365672 -1.6344838 0.7746982 5588519
-0.53689671 -1.6344838 0.7746982 5588520
-0.54013664 -1.6344838 0.7746982 5588520
-0.54337662 -1.6344838 0.7746982 5588519
-0.54661661 -1.6344838 0.7746982 5588520
-0.5498566 -1.6344838 0.7746982 5588777
-0.55309659 -1.6344838 0.7746982 5654571
-0.55633658 -1.6344838 0.7746982 5720365
-0.55957657 -1.6344838 0.7746982 5720623
-0.56143814 -1.6307492 0.77669054 1776411
-0.56330842 -1.6270791 0.77864844 2368548
-0.56517005 -1.6234262 0.78059721 3026735
-0.5670231 -1.6197902 0.78253704 3289907
-0.56886756 -1.6161708 0.78446794 3684408
-0.84145522 -1.6344844 0.77469784 5654574
-0.84469521 -1.6344844 0.77469784 5654573
-0.8479352 -1.6344844 0.77469784 5588780
-0.85117519 -1.6344844 0.77469784 5588779
-0.85441518 -1.6344844 0.77469784 5588778
-0.85765517 -1.6344845 0.77469778 5588778
-0.86089516 -1.6344845 0.77469778 5588521
-0.86413515 -1.6344845 0.77469778 5588521
-0.86737514 -1.6344845 0.77469778 5588521
-0.87061512 -1.6344845 0.77469778 5588778
-0.87385511 -1.6344845 0.77469778 5589036
-0.8770951 -1.6344845 0.77469778 5654830
-0.88033509 -1.6344845 0.77469778 5655088
-0.88357502 -1.6344845 0.77469778 5655089
-0.88681501 -1.6344845 0.77469778 5655346
-0.890055 -1.6344845 0.77469778 5655090
-0.89329499 -1.6344845 0.77469778 5589553
-0.89653498 -1.6344845 0.77469778 5589296
-0.89977497 -1.6344845 0.77469778 5589038
-0.90301496 -1.6344845 0.77469778 5589038
-0.90625495 -1.6344845 0.77469778 5523502
-0.909495 -1.6344846 0.77469772 5523502
-0.91273493 -1.6344846 0.77469772 5523503
0.91161978 -1.6276191 0.77470064 5654311
0.90839064 -1.6276191 0.77470064 5654311
0.90516156 -1.6276191 0.77470064 5654311
0.90193242 -1.6276191 0.77470064 5654311
0.8987034 -1.6276193 0.77470058 5654311
0.89547426 -1.6276193 0.77470058 5654311
0.89224517 -1.6276193 0.77470058 5654310
0.88901603 -1.6276193 0.77470058 5654054
0.88578695 -1.6276193 0.77470058 5654054
0.88255781 -1.6276193 0.77470058 5654054
0.87932879 -1.6276194 0.77470052 5654054
0.87609965 -1.6276193 0.77470058 5654054
0.8728705 -1.6276193 0.77470058 5654311
0.86964148 -1.6276194 0.77470052 5654311
0.86641228 -1.6276193 0.77470058 5654311
0.86318326 -1.6276194 0.77470052 5654311
0.85995412 -1.6276194 0.77470052 5654311
0.85672504 -1.6276194 0.77470052 5719847
0.8534959 -1.6276194 0.77470052 5719847
0.85026687 -1.6276195 0.77470046 5720103
0.84703767 -1.6276194 0.77470052 5720103
0.84380865 -1.6276195 0.77470046 5720103
0.84057951 -1.6276195 0.77470046 5654311
0.83735043 -1.6276195 0.77470046 5654311
0.83412129 -1.6276195 0.77470046 5588519
0.83089221 -1.6276195 0.77470046 5588519
0.82766306 -1.6276195 0.77470046 5588776
0.82443398 -1.6276195 0.77470046 5654313
0.82120484 -1.6276195 0.77470046 5654313
0.81797576 -1.6276195 0.77470046 5654570
0.81474662 -1.6276195 0.77470046 5654571
0.81151754 -1.6276195 0.77470046 5654570
0.8082884 -1.6276195 0.77470046 5654570
0.80505931 -1.6276195 0.77470046 5654570
0.80183023 -1.6276197 0.7747004 5654570
0.79860115 -1.6276197 0.7747004 5654571
0.79537201 -1.6276197 0.7747004 5654571
0.79214293 -1.6276197 0.7747004 5654572
0.78891379 -1.6276197 0.7747004 5654572
0.7856847 -1.6276197 0.7747004 5654828
0.78245562 -1.6276197 0.77470034 5654571
0.77922654 -1.6276197 0.77470034 5654569
0.7759974 -1.6276197 0.77470034 5654568
0.77276832 -1.6276197 0.77470034 5654568
0.76953912 -1.6276197 0.7747004 5654567
0.7663101 -1.6276197 0.77470034 5654567
0.76308095 -1.6276197 0.77470034 5654567
0.75985187 -1.6276197 0.77470034 5654568
0.75662273 -1.6276197 0.77470034 5720104
0.75339371 -1.6276199 0.77470028 5654311
0.75016451 -1.6276197 0.77470034 5654311
0.74693549 -1.6276199 0.77470028 5719847
0.74370635 -1.6276199 0.77470028 5719847
0.74047726 -1.6276199 0.77470028 5785639
0.73724812 -1.6276199 0.77470028 5785639
0.73401904 -1.6276199 0.77470028 5785640
0.7307899 -1.6276199 0.77470028 5785640
0.72756082 -1.62762 0.77470028 5785897
0.72433168 -1.6276199 0.77470028 5785897
0.7211026 -1.6276199 0.77470028 5785898
0.71787345 -1.6276199 0.77470028 5785898
0.71464437 -1.6276199 0.77470028 5785898
0.71141523 -1.6276199 0.77470028 5720105
0.70818615 -1.6276199 0.77470028 5720105
0.70495707 -1.62762 0.77470028 5720105
0.70172793 -1.62762 0.77470028 5654569
0.69849885 -1.62762 0.77470028 5654313
0.6952697 -1.62762 0.77470028 5588776
0.69204062 -1.62762 0.77470028 5588519
0.68881148 -1.62762 0.77470028 5588519
0.6855824 -1.62762 0.77470028 5588520
0.68235332 -1.6276201 0.77470022 5588520
0.67912424 -1.6276201 0.77470022 5588520
0.67589509 -1.6276201 0.77470022 5588262
0.67266601 -1.6276201 0.77470022 5522726
0.66943681 -1.62762 0.77470028 5588520
0.66620779 -1.6276201 0.77470022 5654314
0.66297865 -1.6276201 0.77470022 5654829
0.65974957 -1.6276201 0.77470022 5720622
0.65652043 -1.6276201 0.77470022 5720624
0.65329134 -1.6276201 0.77470022 5720624
0.6500622 -1.6276201 0.77470022 5720623
0.64683312 -1.6276201 0.77470022 5720366
0.64360404 -1.6276202 0.77470016 5654828
0.6403749 -1.6276202 0.77470016 5654828
0.63714582 -1.6276202 0.77470016 5654829
0.63391668 -1.6276202 0.77470016 5655086
0.63068759 -1.6276202 0.77470016 5655087
0.62745845 -1.6276202 0.77470016 5655087
0.62422937 -1.6276202 0.77470016 5655087
0.62100023 -1.6276202 0.77470016 5655086
0.61777115 -1.6276202 0.77470016 5654830
0.61454201 -1.6276202 0.77470016 5654829
0.61131293 -1.6276202 0.77470016 5654829
0.60808384 -1.6276203 0.77470011 5654828
0.6048547 -1.6276203 0.77470011 5654828
0.60162562 -1.6276203 0.77470011 5654829
0.59839648 -1.6276203 0.77470011 5655086
0.5951674 -1.6276203 0.77470011 5655087
0.59193826 -1.6276203 0.77470011 5654830
0.58870918 -1.6276205 0.77470005 5654828
0.58548009 -1.6276205 0.77470005 5654571
0.58225095 -1.6276205 0.77470005 5654570
0.57902187 -1.6276205 0.77470005 5654570
0.57579273 -1.6276205 0.77470005 5654569
0.57256365 -1.6276205 0.77470005 5654570
0.56933451 -1.6276205 0.77470005 5720363
0.56610537 -1.6276203 0.77470011 5720364
0.56287628 -1.6276205 0.77470005 5720620
0.5596472 -1.6276205 0.77470005 5720621
0.55641806 -1.6276205 0.77470005 5720621
0.55318898 -1.6276205 0.77470005 5720622
0.54995984 -1.6276205 0.77470005 5720622
0.54673076 -1.6276205 0.77470005 5720622
0.54350168 -1.6276206 0.77469999 5786157
0.54027253 -1.6276206 0.77469999 5786156
0.53704345 -1.6276206 0.77469999 5720363
0.53381431 -1.6276206 0.77469999 5720363
0.53058523 -1.6276206 0.77469999 5720364
0.52735609 -1.6276206 0.77469999 5654828
0.52412701 -1.6276206 0.77469993 5654571
0.52089787 -1.6276206 0.77469999 5654570
0.51766878 -1.6276206 0.77469993 5654570
0.51443964 -1.6276206 0.77469999 5654570
0.51121056 -1.6276206 0.77469993 5654570
0.50798142 -1.6276206 0.77469993 5654570
0.50475234 -1.6276206 0.77469993 5654571
0.5015232 -1.6276206 0.77469993 5654828
0.49829412 -1.6276206 0.77469993 5654829
0.49506497 -1.6276206 0.77469993 5654830
0.49183589 -1.6276206 0.77469993 5655087
0.48860675 -1.6276206 0.77469993 5655088
0.48537767 -1.6276207 0.77469987 5655089
0.48214859 -1.6276207 0.77469987 5655089
0.47891945 -1.6276207 0.77469987 5655088
0.47569036 -1.6276207 0.77469987 5654830
0.35967892 -1.6137629 0.78212494 4670794
0.35944235 -1.6276211 0.77469969 5457451
0.35621327 -1.6276211 0.77469969 5457451
0.35298413 -1.6276211 0.77469969 5457450
0.34975505 -1.6276212 0.77469963 5457707
0.34652591 -1.6276212 0.77469963 5457708
0.34329683 -1.6276212 0.77469963 5523501
0.34006768 -1.6276212 0.77469963 5523758
0.3368386 -1.6276212 0.77469963 5523760
0.33360946 -1.6276212 0.77469963 5589553
0.33038038 -1.6276212 0.77469963 5589553
0.32715124 -1.6276212 0.77469963 5589296
0.32392216 -1.6276213 0.77469957 5523760
0.32069302 -1.6276213 0.77469957 5523503
0.31746393 -1.6276213 0.77469957 5457709
0.31423479 -1.6276213 0.77469957 5457708
0.31100571 -1.6276213 0.77469957 5457452
0.30777657 -1.6276213 0.77469957 5457452
0.30454749 -1.6276213 0.77469957 5523244
0.30131835 -1.6276213 0.77469957 5523501
0.29808927 -1.6276213 0.77469957 5589038
0.29486012 -1.6276213 0.77469957 5589295
0.29163098 -1.6276213 0.77469957 5589295
0.2884019 -1.6276213 0.77469957 5589295
0.28517282 -1.6276214 0.77469951 5654831
0.28194368 -1.6276214 0.77469951 5654830
0.2787146 -1.6276214 0.77469951 5654830
0.27548546 -1.6276214 0.77469951 5654829
0.27225631 -1.6276214 0.77469951 5654829
0.26902723 -1.6276214 0.77469951 5720621
0.26579812 -1.6276214 0.77469951 5720622
0.26256901 -1.6276214 0.77469945 5720622
0.2593399 -1.6276214 0.77469945 5720622
0.25611079 -1.6276214 0.77469945 5720623
0.25288168 -1.6276214 0.77469945 5720622
0.24965256 -1.6276214 0.77469945 5720365
0.24642345 -1.6276214 0.77469945 5720363
0.24319433 -1.6276214 0.77469945 5720105
0.20444497 -1.6276215 0.77469939 5720363
0.20121586 -1.6276215 0.77469939 5720363
0.19798674 -1.6276215 0.77469939 5720362
0.19475763 -1.6276215 0.77469939 5720362
0.19152851 -1.6276215 0.77469939 5720363
0.18829942 -1.6276217 0.77469933 5720363
0.18507029 -1.6276217 0.77469933 5720363
0.18184118 -1.6276217 0.77469933 5720363
0.17861207 -1.6276217 0.77469933 5720363
0.17538296 -1.6276217 0.77469933 5720363
0.17215383 -1.6276217 0.77469933 5720106
0.16892472 -1.6276217 0.77469933 5720105
0.16569562 -1.6276218 0.77469927 5720104
0.1624665 -1.6276218 0.77469927 5719847
0.15923738 -1.6276218 0.77469927 5654311
0.15600827 -1.6276218 0.77469927 5654311
0.15277916 -1.6276218 0.77469927 5654311
0.14955004 -1.6276218 0.77469927 5654311
0.14632092 -1.6276218 0.77469927 5654311
0.14309181 -1.6276218 0.77469927 5654569
0.13986269 -1.6276218 0.77469927 5654570
0.13663357 -1.6276218 0.77469927 5720363
0.13340446 -1.6276218 0.77469927 5720364
0.13017535 -1.6276218 0.77469927 5720365
0.12694624 -1.6276219 0.77469921 5720365
0.12371713 -1.6276219 0.77469921 5720364
0.12048801 -1.6276219 0.77469921 5720364
0.1172589 -1.6276219 0.77469921 5720364
0.11402978 -1.6276219 0.77469921 5720364
0.11080067 -1.6276219 0.77469921 5654829
0.10757155 -1.6276219 0.77469921 5654830
-0.076488055 -1.6276225 0.77469891 5654312
-0.079717167 -1.6276225 0.77469891 5654570
-0.082946286 -1.6276225 0.77469891 5720106
-0.086175412 -1.6276226 0.77469885 5654569
-0.089404516 -1.6276225 0.77469891 5654568
-0.092633642 -1.6276226 0.77469885 5654568
-0.095862761 -1.6276226 0.77469885 5720105
-0.09909188 -1.6276226 0.77469885 5720361
-0.10232099 -1.6276226 0.77469885 5720362
-0.10555011 -1.6276226 0.77469885 5720363
-0.10877922 -1.6276225 0.77469891 5720364
-0.11200833 -1.6276225 0.77469891 5720364
-0.11523746 -1.6276226 0.77469885 5720365
-0.11846657 -1.6276226 0.77469885 5654830
-0.1216957 -1.6276226 0.77469885 5654831
-0.12492481 -1.6276226 0.77469885 5655087
-0.12815392 -1.6276226 0.77469885 5655087
-0.13138305 -1.6276226 0.77469885 5654829
-0.13461217 -1.6276227 0.77469879 5654570
-0.13784128 -1.6276227 0.77469879 5654312
-0.14107041 -1.6276227 0.77469879 5654311
-0.27346426 -1.6276231 0.77469856 5654310
-0.2766934 -1.6276231 0.77469856 5654311
-0.27992249 -1.6276231 0.77469856 5654311
-0.28315163 -1.6276232 0.7746985 5654312
-0.28638077 -1.6276232 0.7746985 5720105
-0.28960991 -1.6276232 0.7746985 5720106
-0.29283899 -1.6276232 0.7746985 5720362
-0.29606813 -1.6276232 0.7746985 5720106
-0.29929721 -1.6276232 0.7746985 5654569
-0.30252635 -1.6276233 0.77469844 5654568
-0.3057555 -1.6276233 0.77469844 5654312
-0.30898464 -1.6276233 0.77469844 5654311
-0.31221372 -1.6276233 0.77469844 5654311
-0.3154428 -1.6276232 0.7746985 5654311
-0.31867194 -1.6276232 0.7746985 5654311
-0.32190108 -1.6276232 0.7746985 5654311
-0.32513022 -1.6276233 0.77469844 5654310
-0.32835931 -1.6276233 0.77469844 5654310
-0.33158845 -1.6276233 0.77469844 5654054
-0.33481759 -1.6276233 0.77469844 5654054
-0.33804667 -1.6276233 0.77469844 5654054
-0.34127581 -1.6276233 0.77469844 5654054
-0.34450489 -1.6276233 0.77469844 5654311
-0.34773403 -1.6276233 0.77469844 5654311
-0.35096318 -1.6276233 0.77469844 5654311
-0.35419226 -1.6276233 0.77469844 5654311
-0.3574214 -1.6276234 0.77469838 5654311
-0.36065054 -1.6276234 0.77469838 5654311
-0.36387968 -1.6276234 0.77469838 5719847
-0.36710876 -1.6276234 0.77469838 5719847
-0.3703379 -1.6276234 0.77469838 5720103
-0.37356699 -1.6276234 0.77469838 5720103
-0.37679613 -1.6276233 0.77469844 5654567
-0.38002521 -1.6276233 0.77469844 5654311
-0.38325435 -1.6276233 0.77469844 5654311
-0.38648349 -1.6276234 0.77469838 5588519
-0.38971257 -1.6276234 0.77469838 5588520
-0.39294171 -1.6276234 0.77469838 5588776
-0.39617085 -1.6276234 0.77469838 5654313
-0.39939994 -1.6276234 0.77469838 5654314
-0.40262908 -1.6276234 0.77469838 5654570
-0.40585822 -1.6276234 0.77469838 5654571
-0.4090873 -1.6276234 0.77469838 5654570
-0.41231644 -1.6276234 0.77469838 5654570
-0.41554552 -1.6276234 0.77469838 5654570
-0.41877466 -1.6276234 0.77469838 5654570
-0.42200381 -1.6276236 0.77469832 5654571
-0.42523295 -1.6276236 0.77469832 5654571
-0.42846203 -1.6276236 0.77469832 5654572
-0.43169117 -1.6276236 0.77469832 5654828
-0.43492031 -1.6276236 0.77469832 5654572
-0.43814939 -1.6276236 0.77469832 5654570
-0.44137853 -1.6276236 0.77469832 5654569
-0.44460762 -1.6276236 0.77469832 5654568
-0.44783676 -1.6276236 0.77469832 5654567
-0.4510659 -1.6276236 0.77469832 5654567
-0.45429498 -1.6276236 0.77469832 5654567
-0.45752412 -1.6276236 0.77469832 5654568
-0.46075326 -1.6276237 0.77469826 5720104
-0.4639824 -1.6276237 0.77469826 5654567
-0.46721148 -1.6276237 0.77469826 5654311
-0.47044063 -1.6276237 0.77469826 5719847
-0.47366977 -1.6276237 0.77469826 5719847
-0.47689885 -1.6276237 0.77469826 5720103
-0.48012799 -1.6276237 0.77469826 5785639
-0.48335707 -1.6276237 0.77469826 5785639
-0.48658621 -1.6276237 0.77469826 5785640
-0.48981529 -1.6276237 0.77469826 5785640
-0.49304444 -1.6276237 0.77469826 5785897
-0.49627358 -1.6276238 0.7746982 5785898
-0.49950272 -1.6276238 0.7746982 5785898
-0.50273186 -1.6276238 0.7746982 5785898
-0.50596094 -1.6276238 0.7746982 5785898
-0.50919008 -1.6276238 0.7746982 5720105
-0.51241916 -1.6276238 0.7746982 5720105
-0.51564831 -1.6276238 0.7746982 5720105
-0.51887745 -1.6276238 0.7746982 5654569
-0.52210653 -1.6276238 0.7746982 5654313
-0.52533567 -1.6276238 0.7746982 5588520
-0.52856481 -1.6276238 0.7746982 5588519
-0.53179389 -1.6276238 0.7746982 5588519
-0.53502303 -1.6276238 0.7746982 5588520
-0.53825212 -1.6276238 0.7746982 5588520
-0.54148126 -1.6276238 0.7746982 5588519
-0.5447104 -1.6276238 0.7746982 5588262
-0.54793948 -1.6276238 0.7746982 5522726
-0.55116862 -1.6276238 0.7746982 5588777
-0.55439776 -1.6276238 0.7746982 5654571
-0.55762684 -1.6276238 0.7746982 5654830
-0.56085598 -1.6276238 0.7746982 5720623
-0.56364071 -1.6264274 0.77533919 2237218
-0.56550258 -1.622774 0.77729672 1908254
-0.56735593 -1.6191373 0.77924526 2500134
-0.56920063 -1.6155174 0.78118479 3158064
-0.57103693 -1.6119143 0.78311545 3487029
-0.83856058 -1.6276244 0.77469784 5523243
-0.84178966 -1.6276244 0.77469784 5457450
-0.8450188 -1.6276244 0.77469784 5457450
-0.84824795 -1.6276244 0.77469784 5457194
-0.85147703 -1.6276244 0.77469784 5457194
-0.85470623 -1.6276245 0.77469778 5457450
-0.85793537 -1.6276245 0.77469778 5457450
-0.86116445 -1.6276245 0.77469778 5457451
-0.86439359 -1.6276245 0.77469778 5457451
-0.86762267 -1.6276245 0.77469778 5457450
-0.87085181 -1.6276245 0.77469778 5457707
-0.87408096 -1.6276245 0.77469778 5457708
-0.87731004 -1.6276245 0.77469778 5523502
-0.88053918 -1.6276245 0.77469778 5523759
-0.88376832 -1.6276245 0.77469778 5589552
-0.8869974 -1.6276245 0.77469778 5589553
-0.89022654 -1.6276245 0.77469778 5589297
-0.89345574 -1.6276246 0.77469772 5523760
-0.89668483 -1.6276246 0.77469772 5523503
-0.89991397 -1.6276246 0.77469772 5457966
-0.90314311 -1.6276246 0.77469772 5457709
-0.90637219 -1.6276246 0.77469772 5457452
-0.90960133 -1.6276246 0.77469772 5457451
-0.91283047 -1.6276246 0.77469772 5457708
0.91186571 -1.6208051 0.77470058 5720105
0.90864736 -1.6208051 0.77470058 5720104
0.90542907 -1.6208051 0.77470058 5719848
0.90221071 -1.6208051 0.77470058 5654311
0.89899248 -1.6208053 0.77470052 5654311
0.89577413 -1.6208053 0.77470052 5719848
0.89255577 -1.6208051 0.77470058 5720104
0.88933754 -1.6208053 0.77470052 5720104
0.88611913 -1.6208051 0.77470058 5720104
0.88290089 -1.6208053 0.77470052 5719847
0.87968254 -1.6208053 0.77470052 5719847
0.87646425 -1.6208053 0.77470052 5719848
0.87324589 -1.6208053 0.77470052 5720104
0.8700276 -1.6208053 0.77470052 5720104
0.86680925 -1.6208053 0.77470052 5720104
0.86359102 -1.6208054 0.77470046 5654312
0.86037266 -1.6208054 0.77470046 5654311
0.85715437 -1.6208054 0.77470046 5654311
0.85393602 -1.6208054 0.77470046 5654311
0.85071772 -1.6208054 0.77470046 5654311
0.84749937 -1.6208054 0.77470046 5654311
0.84428114 -1.6208054 0.7747004 5654311
0.84106272 -1.6208054 0.77470046 5654312
0.83784443 -1.6208054 0.77470046 5654312
0.83462614 -1.6208054 0.7747004 5588776
0.83140779 -1.6208054 0.77470046 5588520
0.82818955 -1.6208054 0.7747004 5588520
0.8249712 -1.6208054 0.7747004 5588520
0.82175291 -1.6208054 0.7747004 5588520
0.81853455 -1.6208054 0.7747004 5588519
0.81531626 -1.6208054 0.7747004 5588519
0.81209791 -1.6208054 0.7747004 5588519
0.80887967 -1.6208055 0.77470034 5588520
0.80566126 -1.6208054 0.7747004 5588776
0.80244303 -1.6208055 0.77470034 5654312
0.79922467 -1.6208055 0.77470034 5654569
0.79600638 -1.6208055 0.77470034 5720105
0.79278803 -1.6208055 0.77470034 5720105
0.78956968 -1.6208054 0.7747004 5720105
0.78635132 -1.6208054 0.7747004 5720105
0.78313309 -1.6208055 0.77470034 5654568
0.77991474 -1.6208055 0.77470034 5654312
0.77669644 -1.6208055 0.77470034 5654312
0.77347809 -1.6208055 0.77470034 5654313
0.7702598 -1.6208055 0.77470034 5654313
0.76704144 -1.6208055 0.77470034 5654570
0.76382321 -1.6208056 0.77470028 5654569
0.7606048 -1.6208055 0.77470034 5654569
0.75738657 -1.6208056 0.77470028 5654568
0.75416821 -1.6208056 0.77470028 5720103
0.75094992 -1.6208056 0.77470028 5720102
0.74773157 -1.6208056 0.77470028 5719846
0.74451327 -1.6208056 0.77470028 5719846
0.74129492 -1.6208056 0.77470028 5720103
0.73807663 -1.6208056 0.77470028 5720104
0.73485827 -1.6208056 0.77470028 5720104
0.73163998 -1.6208056 0.77470028 5720103
0.72842169 -1.6208057 0.77470022 5720103
0.72520334 -1.6208056 0.77470028 5720361
0.72198504 -1.6208057 0.77470022 5720619
0.71876675 -1.6208057 0.77470022 5786156
0.7155484 -1.6208057 0.77470022 5786156
0.7123301 -1.6208057 0.77470022 5785899
0.70911175 -1.6208057 0.77470022 5720362
0.70589346 -1.6208057 0.77470022 5720105
0.70267516 -1.6208059 0.77470016 5654569
0.69945687 -1.6208059 0.77470016 5654313
0.69623852 -1.6208059 0.77470016 5588776
0.69302022 -1.6208059 0.77470016 5588520
0.68980187 -1.6208059 0.77470016 5588520
0.68658358 -1.6208059 0.77470016 5588520
0.68336523 -1.6208059 0.77470016 5588519
0.68014693 -1.6208059 0.77470016 5588519
0.67692858 -1.6208059 0.77470016 5588520
0.67371029 -1.6208059 0.77470016 5588520
0.67049193 -1.6208059 0.77470016 5588778
0.66727364 -1.6208059 0.77470016 5654571
0.66405529 -1.6208059 0.77470016 5654829
0.66083699 -1.620806 0.77470011 5720366
0.6576187 -1.620806 0.77470011 5720624
0.65440041 -1.620806 0.77470011 5720624
0.65118206 -1.620806 0.77470011 5720623
0.64796376 -1.620806 0.77470011 5720623
0.64474541 -1.620806 0.77470011 5654830
0.64152712 -1.6208061 0.77470005 5654829
0.63830876 -1.620806 0.77470011 5654829
0.63509047 -1.6208061 0.77470005 5654830
0.63187218 -1.6208061 0.77470005 5655086
0.62865382 -1.6208061 0.77470005 5655086
0.62543553 -1.6208061 0.77470005 5655087
0.62221718 -1.6208061 0.77470005 5655087
0.61899889 -1.6208061 0.77470005 5655088
0.61578053 -1.6208061 0.77470005 5655088
0.61256224 -1.6208061 0.77470005 5655088
0.60934395 -1.6208062 0.77469999 5655086
0.60612559 -1.6208062 0.77469999 5654829
0.6029073 -1.6208062 0.77469999 5654829
0.59968895 -1.6208062 0.77469999 5654829
0.59647065 -1.6208062 0.77469999 5655086
0.5932523 -1.6208062 0.77469999 5654829
0.59003401 -1.6208062 0.77469999 5654829
0.58681566 -1.6208062 0.77469999 5654828
0.58359736 -1.6208062 0.77469999 5654571
0.58037901 -1.6208062 0.77469999 5654571
0.57716072 -1.6208062 0.77469999 5654571
0.57394236 -1.6208062 0.77469999 5654571
0.57072407 -1.6208062 0.77469999 5720364
0.56750578 -1.6208062 0.77469999 5720621
0.56428748 -1.6208062 0.77469999 5720621
0.56106913 -1.6208062 0.77469999 5786157
0.55785084 -1.6208062 0.77469999 5786156
0.55463248 -1.6208062 0.77469999 5786157
0.55141419 -1.6208062 0.77469999 5786158
0.54819584 -1.6208062 0.77469999 5786414
0.54497755 -1.6208063 0.77469993 5720878
0.54175925 -1.6208063 0.77469993 5720621
0.5385409 -1.6208063 0.77469993 5720621
0.53532261 -1.6208063 0.77469993 5720621
0.53210425 -1.6208062 0.77469999 5720622
0.52888596 -1.6208063 0.77469993 5720623
0.52566761 -1.6208063 0.77469993 5720365
0.52244931 -1.6208063 0.77469993 5654571
0.51923096 -1.6208063 0.77469993 5654313
0.51601261 -1.6208063 0.77469993 5654570
0.51279432 -1.6208063 0.77469993 5654570
0.50957596 -1.6208063 0.77469993 5654571
0.50635767 -1.6208063 0.77469993 5654570
0.50313938 -1.6208065 0.77469987 5654313
0.49992102 -1.6208063 0.77469993 5654313
0.49670273 -1.6208065 0.77469987 5654570
0.49348438 -1.6208065 0.77469987 5654828
0.49026608 -1.6208065 0.77469987 5654830
0.48704773 -1.6208065 0.77469987 5655087
0.48382944 -1.6208066 0.77469981 5655087
0.48061109 -1.6208065 0.77469987 5655088
0.47739279 -1.6208065 0.77469987 5655087
0.47417444 -1.6208065 0.77469987 5654830
