# .PCD v0.7 - Point Cloud Data file format
VERSION 0.7
FIELDS x y z
SIZE 4 4 4
TYPE F F F
COUNT 1 1 1
WIDTH 1722
HEIGHT 1
VIEWPOINT 0 0 0 1 0 0 0
POINTS 1722
DATA ascii
512777.97 5403657.5 330.70999
512777.88 5403656 328.92999
512777.88 5403655.5 328.88
512777.88 5403655.5 328.89999
512777.88 5403655.5 328.79001
512777.81 5403655 328.85999
512777.75 5403655 328.92001
512777.72 5403655.5 328.76999
512777.78 5403660.5 333.28
512777.84 5403669 339.35001
512777.88 5403670.5 340.67999
512777.88 5403671.5 340.95999
512777.88 5403673 341.22
512777.88 5403676.5 341.38
512777.88 5403678 341.48999
512777.88 5403679.5 341.42001
512777.88 5403681 341.45999
512777.88 5403682 341.60001
512777.88 5403683.5 341.67001
512777.88 5403685 341.79999
512777.88 5403686 341.89001
512777.88 5403687.5 342.10001
512777.88 5403689 342.35999
512777.88 5403690.5 342.44
512777.88 5403691.5 342.48001
512777.88 5403693 342.51999
512777.88 5403694.5 342.59
512777.94 5403700 347.98001
512777.94 5403701.5 348.04999
512777.94 5403703 348.25
512777.94 5403704.5 348.81
512777.94 5403705.5 349.29001
512777.94 5403707 350.28
512778.03 5403725 357.98999
512778.06 5403729 360.51001
512778.06 5403730.5 360.82999
512778.06 5403731.5 360.95999
512778.09 5403733 362.95001
512778.09 5403734.5 363.57999
512778.09 5403735.5 363.73001
512778.09 5403737 364.04001
512778.12 5403741 365.57001
512778.12 5403743.5 367.44
512778.16 5403751 370.32001
512778.19 5403756.5 372.79001
512778.22 5403761.5 375.39001
512778.22 5403762.5 375.64999
512778.22 5403764 376.48001
512778.28 5403779 382.17999
512778.28 5403784 382.57001
512778.28 5403785 382.95999
512778.28 5403787.5 383.63
512778.28 5403791.5 384.14999
512778.28 5403794 384.20001
512778 5403795 384.62
512778 5403794 384.26001
512777.97 5403793 384.13
512777.97 5403791.5 384.14001
512777.91 5403788.5 383.72
512777.91 5403787 383.48999
512777.88 5403785 382.85001
512777.81 5403780 382.64999
512777.78 5403779 382.41
512777.78 5403777.5 382.07999
512777.69 5403773 379.98999
512777.56 5403765.5 377.53
512777.56 5403764 376.63
512777.53 5403763 376.16
512777.41 5403756.5 372.95999
512777.31 5403750 370.04001
512777.28 5403749 369.97
512777.19 5403744 367.87
512777.19 5403742.5 367.32999
512777.12 5403738.5 365.12
512777.09 5403737 364.87
512777.06 5403734.5 363.64999
512777 5403732 362.82001
512776.97 5403730.5 360.88
512776.94 5403729.5 360.85999
512776.75 5403720 354.44
512776.59 5403709 350.92999
512776.56 5403706 349.38
512776.5 5403703.5 348.81
512776.5 5403702 348.37
512776.38 5403697.5 343.39999
512776.34 5403695 343.26001
512776.34 5403693.5 342.70999
512776.31 5403692 342.69
512776.31 5403690.5 342.70001
512776.28 5403689 342.5
512776.25 5403687.5 342.35999
512776.25 5403686.5 342.76999
512776.22 5403685 341.75
512776.22 5403683.5 341.56
512776.19 5403682 341.42001
512776.19 5403680.5 341.42999
512776.16 5403679.5 341.26001
512776.12 5403678 341.20999
512776.12 5403676.5 341.35001
512776.09 5403672.5 341.20999
512776.03 5403668 340.01001
512776 5403666.5 339.70001
512775.97 5403665 337.73999
512775.94 5403663.5 337.22
512775.91 5403662 335.56
512775.88 5403660.5 334.23001
512775.88 5403659.5 334.28
512775.81 5403658 333.20001
512775.72 5403656 330.59
512775.72 5403656 330.29999
512775.62 5403655 329.06
512775.62 5403655 329.01001
512775.62 5403655 329
512775.62 5403654.5 328.89999
512775.62 5403654.5 328.89001
512775.59 5403654.5 328.92001
512775.59 5403654.5 328.85001
512775.56 5403654.5 328.88
512775.56 5403654.5 328.91
512775.56 5403656 330.54999
512775.59 5403658 333.16
512775.62 5403660.5 334.35001
512775.62 5403662 335.73999
512775.66 5403663.5 337.41
512775.66 5403666.5 339.26001
512775.69 5403667.5 339.94
512775.69 5403669 340.32999
512775.69 5403677 341.22
512775.69 5403678 341.29001
512775.69 5403679.5 341.34
512775.69 5403680.5 341.35001
512775.69 5403682 341.53
512775.69 5403683.5 341.64999
512775.69 5403686.5 342.70001
512775.69 5403687.5 342.69
512775.69 5403690.5 342.79999
512775.69 5403691.5 342.70999
512775.69 5403693 343.01001
512775.69 5403694.5 343.04001
512775.69 5403697 343.41
512775.78 5403704.5 349.76001
512775.78 5403705.5 349.84
512775.81 5403718 354.54999
512775.88 5403723.5 359.10001
512775.88 5403725 359.42001
512775.91 5403729 360.92001
512775.94 5403733 363.37
512775.94 5403734 363.57999
512775.94 5403738 364.98001
512775.97 5403741 367.44
512775.97 5403742 367.41
512775.97 5403743.5 367.79001
512776 5403747 369.81
512776 5403750 369.98999
512776.03 5403751 371.79999
512776.03 5403753.5 372.54999
512776.03 5403756 374.04999
512776.03 5403757.5 373.84
512776.06 5403764 376.63
512776.12 5403777.5 382.26001
512776.12 5403782.5 383.14001
512776.12 5403784 383.17999
512776.12 5403785 383.32001
512776.12 5403786.5 383.73999
512776.12 5403790 384.04999
512776.12 5403791.5 384.22
512776.12 5403794 384.76999
512776.16 5403796.5 387.69
512775.84 5403794 384.79001
512775.72 5403786 383.57999
512775.72 5403785 383.60001
512775.59 5403776.5 382.17999
512775.56 5403775 381.82999
512775.25 5403758 373.75
512775.16 5403751.5 371.92001
512775.16 5403750 371.45999
512775.12 5403749 369.76999
512775.03 5403743.5 368.94
512775 5403742.5 367.79001
512775 5403741 367.35001
512774.97 5403740 367.12
512774.91 5403737 364.89999
512774.88 5403734.5 364.29001
512774.84 5403733 362.81
512774.81 5403730.5 363.23001
512774.81 5403729 362.84
512774.75 5403728 360.95999
512774.72 5403725.5 359.82999
512774.69 5403724 359.42001
512774.56 5403718.5 354.54001
512774.56 5403717 354.57999
512774.53 5403716 354.57001
512774.41 5403710 350.78
512774.41 5403709 350.82001
512774.41 5403707.5 350.95001
512774.31 5403700.5 349.14001
512774.22 5403699 344.60001
512774.19 5403697.5 344.53
512774.12 5403693 342.81
512774.12 5403692 342.76999
512774.12 5403690.5 344.32999
512774.06 5403686.5 342.81
512774 5403682 341.48999
512773.97 5403680.5 341.29001
512773.97 5403679.5 341.20999
512773.94 5403678 341.17999
512773.94 5403676.5 341.10001
512773.91 5403675 341.01001
512773.91 5403673.5 340.97
512773.84 5403668 340.5
512773.81 5403666.5 339.60999
512773.78 5403665 339.07999
512773.75 5403663.5 337.91
512773.72 5403662 337.23999
512773.66 5403659.5 334.78
512773.66 5403659 334.89001
512773.62 5403657.5 333.62
512773.62 5403657 333.94
512773.59 5403657 334.01999
512773.59 5403657 333.98999
512773.59 5403656.5 333.97
512773.56 5403656.5 333.88
512773.56 5403656.5 333.81
512773.53 5403656 333.70999
512773.53 5403656 333.73001
512773.41 5403656 333.70001
512773.41 5403656.5 333.97
512773.41 5403657 333.92999
512773.41 5403659.5 334.92001
512773.47 5403663.5 337.89999
512773.47 5403665 339.20999
512773.47 5403666.5 339.76001
512773.5 5403667.5 340.57999
512773.5 5403669 340.82999
512773.5 5403670 340.85999
512773.5 5403673 340.92999
512773.5 5403674 341.01999
512773.5 5403675.5 341.06
512773.5 5403676.5 341.07001
512773.5 5403678 341.10001
512773.5 5403679.5 341.23001
512773.5 5403680.5 341.34
512773.5 5403682 341.48001
512773.5 5403686.5 343.19
512773.5 5403687.5 342.94
512773.53 5403689 344.35001
512773.53 5403690.5 344.57999
512773.5 5403691.5 342.78
512773.5 5403693 342.87
512773.5 5403694.5 344.07001
512773.5 5403696 343.81
512773.5 5403697 344.54001
512773.53 5403698.5 345.76999
512773.59 5403703 350.53
512773.59 5403707 351.31
512773.59 5403708.5 350.88
512773.59 5403710 350.92999
512773.62 5403711.5 352.07999
512773.66 5403714 355.48001
512773.62 5403715.5 354.63
512773.62 5403716.5 354.56
512773.62 5403718 354.51001
512773.66 5403719.5 355.37
512773.69 5403722.5 359.01001
512773.69 5403723.5 359.48999
512773.72 5403727.5 361.13
512773.75 5403729 362.82999
512773.75 5403730 363.32001
512773.75 5403731.5 363.39001
512773.75 5403737 364.81
512773.78 5403740.5 367.5
512773.81 5403742 369.23001
512773.81 5403744.5 369.59
512773.84 5403750 371.92001
512773.84 5403751 371.87
512773.88 5403760 374.73999
512773.88 5403762.5 376.54999
512773.88 5403764 376.88
512773.94 5403772.5 381.48001
512773.94 5403773.5 382.01001
512773.94 5403785 383.66
512773.94 5403786.5 383.76999
512773.94 5403787.5 383.89999
512773.94 5403790 384.09
512773.94 5403791.5 384.34
512773.97 5403792.5 385.04999
512774 5403796 387.92001
512773.88 5403801 388.5
512773.88 5403801 388.5
512773.88 5403801 388.54999
512773.88 5403801 388.51001
512773.88 5403801 388.51999
512773.88 5403801 388.56
512773.84 5403801 388.54001
512773.81 5403801 388.47
512773.72 5403795.5 388.04999
512773.66 5403792.5 385
512773.62 5403790.5 384.31
512773.59 5403789.5 384.14001
512773.56 5403786 383.76001
512773.44 5403776.5 382.45999
512773.34 5403771.5 380.39001
512773.31 5403769 379.57001
512773.22 5403765.5 377.44
512773.22 5403764 376.95999
512773.19 5403762.5 376.64999
512773.16 5403761.5 376.20999
512773.16 5403760 375.62
512773.12 5403759 374.31
512773.03 5403754 373.25
512773 5403751.5 372.17001
512772.97 5403750 371.81
512772.91 5403746 369.60001
512772.88 5403743.5 368.94
512772.84 5403742.5 369.04001
512772.72 5403736 364.54999
512772.69 5403732 364.64001
512772.62 5403730.5 363.29999
512772.62 5403729 363.23001
512772.59 5403728 361.35999
512772.56 5403726.5 360.73001
512772.53 5403725 360.19
512772.53 5403724 359.67001
512772.5 5403722.5 358.85999
512772.47 5403721 357.60999
512772.44 5403719.5 356.01001
512772.41 5403718.5 355.51999
512772.38 5403717 355.09
512772.38 5403716 355.47
512772.38 5403714.5 355.23001
512772.34 5403713 355.22
512772.28 5403711.5 352.67999
512772.28 5403710.5 353.07001
512772.25 5403709 352.79001
512772.22 5403707.5 351.38
512772.19 5403705 351.42001
512772.09 5403700.5 346.78
512772.06 5403699 345.91
512772.06 5403697.5 345.84
512772.03 5403696 345.03
512772 5403695 344.89001
512771.94 5403692 343.51001
512771.94 5403690.5 343.92001
512771.94 5403689 343.78
512771.91 5403688 343.26001
512771.88 5403686.5 343.29999
512771.88 5403685 343.69
512771.84 5403682.5 343.64999
512771.81 5403680.5 341.23999
512771.78 5403679 341.10999
512771.78 5403678 340.95999
512771.75 5403676.5 340.98001
512771.72 5403675 340.87
512771.72 5403673.5 340.84
512771.69 5403672 340.75
512771.66 5403669.5 340.85999
512771.62 5403665 339.95001
512771.59 5403663.5 339.39001
512771.56 5403662 338.07001
512771.53 5403661 337.48001
512771.5 5403660 335.82001
512771.5 5403659 335.82001
512771.47 5403658 336.03
512771.47 5403658 336.26999
512771.41 5403657 334.12
512771.41 5403656.5 334.16
512771.41 5403656.5 334.23999
512771.41 5403656.5 334.35999
512771.38 5403656.5 334.38
512771.38 5403656 334.32999
512771.34 5403656 334.34
512771.34 5403655.5 334.22
512771.34 5403655.5 334.13
512771.34 5403655.5 334.13
512771.31 5403655.5 334.03
512771.31 5403655.5 333.97
512771.31 5403655.5 333.98001
512771.28 5403655.5 333.92001
512771.28 5403655.5 333.94
512771.25 5403655.5 333.95001
512771.25 5403655.5 334.16
512771.25 5403656 334.35999
512771.25 5403656.5 334.45001
512771.25 5403658.5 336.10999
512771.25 5403659.5 336.06
512771.28 5403661 337.63
512771.28 5403662 338.06
512771.31 5403663.5 339.29001
512771.31 5403665 340.20999
512771.31 5403666.5 340.70999
512771.31 5403667.5 340.79999
512771.31 5403669 340.73999
512771.31 5403671.5 340.73999
512771.31 5403672.5 340.73999
512771.31 5403674 340.84
512771.31 5403675.5 340.95001
512771.31 5403676.5 340.91
512771.31 5403678 340.98999
512771.31 5403679.5 341.14001
512771.34 5403681 343.51001
512771.34 5403685 343.72
512771.34 5403686.5 343.41
512771.34 5403687.5 343.20999
512771.34 5403692 343.97
512771.34 5403693 344.06
512771.38 5403694.5 344.85999
512771.38 5403696 345.04999
512771.38 5403697.5 346.10999
512771.38 5403701.5 346.29001
512771.41 5403703 349.95999
512771.44 5403707 351.35999
512771.44 5403708.5 352.63
512771.47 5403710 352.85001
512771.47 5403711.5 353.13
512771.47 5403712.5 354.82999
512771.5 5403714 355.28
512771.5 5403715.5 355.35999
512771.5 5403716.5 355.35999
512771.53 5403721 357.89999
512771.53 5403722 359.17999
512771.53 5403723.5 359.76999
512771.56 5403725 360.38
512771.56 5403726 360.98999
512771.56 5403727.5 361.88
512771.56 5403729 361.5
512771.59 5403730 363.38
512771.59 5403731.5 364.41
512771.62 5403733 364.92999
512771.62 5403734 365.75
512771.62 5403735.5 366.09
512771.66 5403742 369.20999
512771.66 5403743.5 369.07001
512771.66 5403744.5 369.12
512771.69 5403749.5 371.88
512771.69 5403751 372.54999
512771.69 5403753.5 373.64999
512771.72 5403757.5 375.53
512771.81 5403778.5 382.79999
512771.81 5403781 382.98999
512771.81 5403783.5 383.57001
512771.81 5403785 383.89001
512771.81 5403786.5 383.81
512771.81 5403789 384.17999
512771.84 5403798.5 388.39999
512771.84 5403799 388.42999
512771.81 5403799 388.45999
512771.81 5403799.5 388.45001
512771.81 5403799.5 388.82999
512771.81 5403800 388.78
512771.78 5403800 388.76001
512771.78 5403800 388.82001
512771.78 5403800 388.67001
512771.78 5403800.5 388.70001
512771.75 5403800.5 388.64001
512771.75 5403800.5 388.59
512771.75 5403800.5 388.53
512771.75 5403800.5 388.51999
512771.72 5403800.5 388.59
512771.72 5403801 388.60001
512771.72 5403801 388.53
512771.72 5403801 388.56
512771.69 5403801 388.59
512771.69 5403800.5 388.60001
512771.66 5403800.5 388.59
512771.66 5403800 388.89001
512771.62 5403799.5 388.45999
512771.59 5403794.5 388.35999
512771.44 5403789 384.31
512771.41 5403787 384.20001
512771.41 5403786 383.76999
512771.34 5403781 382.95001
512771.31 5403778.5 383
512771.28 5403776 382.67999
512771.22 5403772.5 382
512771.03 5403762.5 377.04001
512770.94 5403756.5 375.51001
512770.84 5403751 372.84
512770.84 5403750 372.34
512770.81 5403748.5 371.69
512770.69 5403742.5 368.94
512770.69 5403741 369.01001
512770.62 5403738.5 366.39999
512770.56 5403734.5 365.76999
512770.47 5403730.5 363.34
512770.41 5403728 361.45999
512770.41 5403726.5 361.13
512770.38 5403725 360.70001
512770.38 5403724 360.20001
512770.34 5403722.5 359.75
512770.25 5403718.5 357.07999
512770.22 5403717 356.47
512770.22 5403715.5 356.26001
512770.19 5403714.5 355.42001
512770.16 5403713 354.73999
512770.12 5403711.5 353.62
512770.12 5403710 353.16
512770.09 5403709 352.85999
512770.06 5403707.5 351.60999
512770 5403704.5 349.51999
512769.97 5403703 349.56
512769.91 5403701.5 346.34
512769.91 5403700 346.31
512769.88 5403699 345.82001
512769.81 5403694.5 343.35999
512769.75 5403690.5 343.35001
512769.75 5403689 343.41
512769.72 5403687.5 343.39001
512769.72 5403686.5 343.44
512769.69 5403685 343.66
512769.69 5403683.5 344.32001
512769.69 5403682.5 344.51999
512769.66 5403681 344.28
512769.62 5403679.5 343.5
512769.59 5403677.5 340.88
512769.56 5403676.5 340.79001
512769.56 5403675 340.73001
512769.53 5403673.5 340.75
512769.53 5403672 340.59
512769.5 5403670.5 340.51999
512769.5 5403669.5 340.54999
512769.47 5403666.5 340.48999
512769.44 5403665 340.44
512769.41 5403663.5 339.94
512769.38 5403662.5 339.25
512769.38 5403661 337.92999
512769.34 5403660 337.67001
512769.31 5403659 336.95999
512769.31 5403658.5 337.12
512769.31 5403658 337.12
512769.22 5403656.5 334.89999
512769.22 5403656.5 334.85001
512769.19 5403656 334.87
512769.19 5403656 334.84
512769.19 5403656 334.76999
512769.19 5403656 334.73001
512769.16 5403655.5 334.70001
512769.16 5403655.5 334.70999
512769.16 5403655.5 334.73001
512769.12 5403655.5 334.79999
512769.12 5403655.5 334.79001
512769.12 5403655.5 334.92001
512769.12 5403655.5 334.94
512769.12 5403655.5 334.92001
512769.09 5403655.5 334.95999
512769.09 5403655.5 334.94
512769.09 5403655.5 334.78
512769.09 5403655.5 334.76001
512769.06 5403656 334.88
512769.06 5403656.5 334.88
512769.09 5403658.5 337.12
512769.09 5403659.5 337.64001
512769.12 5403663.5 340.04001
512769.12 5403665 340.35001
512769.12 5403666.5 340.54001
512769.12 5403667.5 340.42001
512769.12 5403669 340.47
512769.12 5403670 340.5
512769.12 5403671.5 340.57999
512769.12 5403672.5 340.62
512769.12 5403674 340.66
512769.12 5403675.5 340.73999
512769.12 5403676.5 340.79001
512769.12 5403678 340.92999
512769.16 5403679.5 343.67999
512769.16 5403681 344.10001
512769.19 5403683.5 344.48999
512769.16 5403685 343.92999
512769.16 5403686 343.82001
512769.16 5403687.5 343.64001
512769.16 5403689 343.51001
512769.16 5403690.5 343.35001
512769.16 5403696 344.84
512769.19 5403697 345.28
512769.19 5403698.5 345.34
512769.19 5403700 347.10999
512769.22 5403704.5 349.47
512769.28 5403708.5 353.12
512769.28 5403710 353.04001
512769.31 5403711.5 355.01001
512769.31 5403714 355.26001
512769.31 5403715.5 356.35001
512769.31 5403716.5 356.44
512769.34 5403718 357.42001
512769.38 5403721 359.64999
512769.38 5403722 359.92999
512769.38 5403723.5 360.23999
512769.38 5403726 361.26001
512769.38 5403727.5 361.45999
512769.41 5403729 362.26001
512769.44 5403731.5 365.76001
512769.44 5403733 365.76999
512769.44 5403734 365.87
512769.44 5403735.5 365.75
512769.44 5403737 365.75
512769.47 5403743 368.87
512769.5 5403747 371.37
512769.56 5403757.5 375.64999
512769.56 5403760 376.48999
512769.59 5403762.5 377.75
512769.59 5403765 378.32001
512769.62 5403767.5 379.98999
512769.62 5403777.5 383.04999
512769.62 5403781 383.56
512769.62 5403785 383.76999
512769.66 5403788.5 384.48999
512769.66 5403790 384.88
512769.69 5403793.5 388.45001
512769.69 5403798.5 388.53
512769.66 5403799 388.51001
512769.66 5403799 388.48001
512769.66 5403799.5 388.48001
512769.66 5403799.5 388.51001
512769.62 5403799.5 388.54001
512769.62 5403800 388.64999
512769.62 5403800 388.72
512769.62 5403800 388.79001
512769.62 5403800 388.87
512769.56 5403801 388.62
512769.53 5403801 388.54999
512769.53 5403801 388.56
512769.5 5403800 388.82001
512769.47 5403799.5 388.51001
512769.47 5403798.5 388.60999
512769.47 5403797.5 388.48999
512769.28 5403788 384.42999
512769.25 5403787 384.04999
512769.19 5403781 383.57001
512769.16 5403779.5 383.47
512769.12 5403777.5 382.79001
512769.03 5403770 381.07001
512768.97 5403767.5 380.04999
512768.94 5403766.5 379.16
512768.91 5403764 378.26001
512768.69 5403751 373.79999
512768.69 5403750 373.76999
512768.62 5403747.5 371.82001
512768.59 5403746 371.17001
512768.59 5403745 371.16
512768.53 5403742 368.76999
512768.41 5403737 365.76999
512768.41 5403735.5 365.84
512768.38 5403734.5 365.82001
512768.38 5403733 365.79001
512768.38 5403732 365.75
512768.34 5403730.5 365.79999
512768.25 5403727.5 362.22
512768.22 5403726.5 361.45001
512768.22 5403725 361.07999
512768.16 5403721 359.60999
512768.06 5403717 357.14999
512768.03 5403715.5 356.41
512768.03 5403714.5 356.28
512768 5403713 355.66
512767.97 5403711.5 355.26999
512767.91 5403709 353.38
512767.88 5403707.5 350.81
512767.81 5403704.5 349.51001
512767.81 5403703 349.20001
512767.75 5403701.5 347.67001
512767.72 5403699 346.22
512767.69 5403697.5 345.28
512767.62 5403696 343.26001
512767.59 5403691.5 343.23001
512767.59 5403690.5 343.39001
512767.56 5403689 343.73001
512767.56 5403687.5 343.66
512767.53 5403686.5 343.79001
512767.53 5403685 344.44
512767.5 5403681 344.72
512767.47 5403679.5 343.81
512767.44 5403678 343.62
512767.41 5403676.5 343.42001
512767.38 5403675 340.60999
512767.34 5403673.5 340.56
512767.34 5403672 340.53
512767.31 5403670.5 340.41
512767.31 5403669 340.39001
512767.28 5403668 340.45999
512767.28 5403666.5 340.17999
512767.25 5403665 340.26001
512767.16 5403660 338.42001
512767.12 5403658.5 337.38
512767.12 5403658 337.44
512767.12 5403657.5 337.48999
512767.09 5403657.5 337.5
512767.09 5403657 337.45999
512767 5403656 335.56
512767 5403656 335.57999
512767 5403656 335.54999
512766.97 5403655.5 335.53
512766.97 5403655.5 335.53
512766.97 5403655.5 335.44
512766.94 5403655.5 335.45999
512766.94 5403655.5 335.51999
512766.94 5403655.5 335.47
512766.91 5403655.5 335.41
512766.91 5403655.5 335.39999
512766.91 5403655.5 335.51999
512766.88 5403656 335.53
512766.91 5403657 337.70001
512766.91 5403657.5 337.63
512766.91 5403658.5 337.51999
512766.94 5403665 340.20999
512766.94 5403666 340.19
512766.94 5403667.5 340.32999
512766.94 5403669 340.37
512766.94 5403670 340.42001
512766.94 5403671.5 340.47
512766.94 5403672.5 340.48001
512766.94 5403674 340.48001
512766.97 5403675.5 342.76001
512766.97 5403677 343.73001
512766.97 5403678 343.63
512766.97 5403679.5 343.73001
512767 5403681 344.70999
512767 5403685 344.57999
512766.97 5403686 343.84
512766.97 5403687.5 343.82001
512766.97 5403689 343.78
512766.97 5403690 343.60001
512766.97 5403691.5 343.38
512766.97 5403695.5 343.17999
512767 5403697.5 346.07001
512767 5403698.5 346.32001
512767.03 5403701.5 347.94
512767.03 5403703 348.89001
512767.06 5403707 351.14001
512767.12 5403710 354.84
512767.12 5403712.5 355.69
512767.12 5403715.5 356.17999
512767.16 5403718 357.73999
512767.16 5403719.5 358.07001
512767.19 5403721 359.66
512767.19 5403722 360.25
512767.19 5403723.5 360.85001
512767.22 5403725 361.23999
512767.22 5403726 361.38
512767.22 5403727.5 362.44
512767.28 5403729 366.17999
512767.28 5403730 365.76999
512767.28 5403731.5 365.82001
512767.28 5403732.5 365.85999
512767.25 5403734 365.82999
512767.25 5403735.5 365.85001
512767.25 5403736.5 365.81
512767.25 5403739.5 365.76001
512767.28 5403740.5 367.47
512767.31 5403742 369.60999
512767.34 5403745.5 371.42999
512767.38 5403749.5 373.57999
512767.38 5403751 373.81
512767.38 5403752 374.92999
512767.38 5403753.5 375.60999
512767.44 5403767 380.31
512767.47 5403776 382.85999
512767.47 5403779.5 383.56
512767.47 5403781 383.53
512767.47 5403782.5 383.64999
512767.47 5403786 384.14999
512767.47 5403787.5 384.64999
512767.53 5403788.5 387.54999
512767.53 5403794.5 388.51999
512767.53 5403795.5 388.45999
512767.53 5403796.5 388.48001
512767.53 5403797 388.57999
512767.5 5403798 388.56
512767.5 5403798.5 388.51999
512767.5 5403798.5 388.57999
512767.5 5403799 388.54999
512767.5 5403799 388.64001
512767.47 5403799.5 388.63
512767.47 5403799.5 388.54001
512767.47 5403799.5 388.63
512767.47 5403800 388.62
512767.47 5403800 388.73001
512767.44 5403800 388.64999
512767.44 5403800 388.54999
512767.34 5403800 388.64999
512767.31 5403799 388.54001
512767.31 5403798.5 388.53
512767.28 5403797.5 388.59
512767.28 5403796.5 388.53
512767.25 5403795.5 388.54999
512767.09 5403785.5 384.17001
512767.03 5403782 383.59
512767 5403781 383.57001
512767 5403779.5 383.66
512766.84 5403770 380.85999
512766.81 5403768.5 380.73999
512766.75 5403765 378.91
512766.69 5403761.5 377.03
512766.56 5403752.5 375.57001
512766.53 5403751 374.44
512766.44 5403746 371.91
512766.38 5403742 369.73001
512766.31 5403741 366.82001
512766.28 5403739.5 365.88
512766.25 5403738 365.82999
512766.25 5403737 365.79999
512766.22 5403735.5 365.85999
512766.22 5403734 365.89001
512766.19 5403733 365.79999
512766.19 5403731.5 365.84
512766.16 5403730.5 365.73999
512766.16 5403729 365.75
512766.09 5403726.5 363.85001
512766.03 5403725 361.41
512766 5403722.5 360.64001
512765.97 5403721 360.26999
512765.91 5403718 358.07001
512765.88 5403715.5 357.47
512765.84 5403714 356.32999
512765.81 5403713 355.70001
512765.81 5403711.5 355.70001
512765.78 5403710 355.23001
512765.69 5403707 351.73001
512765.59 5403701.5 348.13
512765.47 5403694.5 345.48999
512765.41 5403693 343.20001
512765.41 5403691.5 343.85001
512765.41 5403690.5 343.76999
512765.38 5403689 344.17001
512765.38 5403687.5 344.44
512765.38 5403686 343.98999
512765.34 5403685 344.39999
512765.28 5403679.5 344.25
512765.25 5403678 343.72
512765.16 5403672 340.35999
512765.12 5403670.5 340.23999
512765.12 5403669 340.29001
512765.09 5403667.5 340.17001
512765.09 5403666.5 340.04999
512765.06 5403665 340
512765.03 5403662.5 339.92001
512765.03 5403661 339.98001
512764.97 5403659 338.09
512764.97 5403658.5 338.45999
512764.94 5403658 338.57001
512764.78 5403655.5 336.59
512764.78 5403655.5 336.62
512764.78 5403655.5 336.62
512764.75 5403655.5 336.57999
512764.75 5403655.5 336.59
512764.75 5403655.5 336.54001
512764.75 5403661 339.92999
512764.75 5403662 339.98999
512764.75 5403665 340.09
512764.75 5403666 340.07999
512764.75 5403667.5 340.23001
512764.75 5403668.5 340.29001
512764.75 5403670 340.23001
512764.75 5403671 340.32999
512764.75 5403672.5 340.37
512764.81 5403674 343.79001
512764.81 5403676.5 343.72
512764.81 5403678 343.88
512764.81 5403679.5 344.66
512764.81 5403681 345.09
512764.81 5403683.5 344.64999
512764.81 5403685 344.25
512764.81 5403686 344.14999
512764.81 5403687.5 344.41
512764.81 5403689 344.42001
512764.81 5403690 344.20001
512764.81 5403691.5 343.64999
512764.81 5403693 343.57001
512764.81 5403694 343.56
512764.84 5403696 346.28
512764.88 5403701.5 350.13
512764.91 5403705.5 352.31
512764.94 5403707 354.06
512764.94 5403708.5 354.60001
512764.97 5403714 356.70001
512765 5403718 357.87
512765.03 5403720.5 360.06
512765.03 5403722 360.73001
512765.03 5403723.5 361.23999
512765.09 5403725 363.95001
512765.09 5403726 365.42999
512765.09 5403727.5 365.92999
512765.09 5403728.5 365.70999
512765.09 5403730 365.79999
512765.09 5403731.5 365.79999
512765.09 5403732.5 365.76001
512765.09 5403734 365.87
512765.09 5403735.5 365.88
512765.09 5403736.5 365.92001
512765.09 5403738 365.95001
512765.09 5403739 365.85999
512765.09 5403740.5 365.91
512765.16 5403742 371.03
512765.16 5403743 371.16
512765.16 5403744.5 371.5
512765.22 5403750.5 374.81
512765.25 5403763.5 378.14001
512765.28 5403767 380.63
512765.31 5403772 382.31
512765.31 5403779.5 383.59
512765.34 5403786 384.89999
512765.34 5403787 385.29001
512765.38 5403790.5 388.62
512765.38 5403793 388.79001
512765.38 5403795.5 388.64999
512765.38 5403796.5 388.60999
512765.38 5403797 388.57999
512765.38 5403797.5 388.64001
512765.38 5403798 388.60999
512765.34 5403798.5 388.5
512765.16 5403798 388.53
512765.12 5403797.5 388.62
512765.12 5403796.5 388.60001
512765.12 5403795.5 388.67001
512765.09 5403794 388.62
512765.09 5403793 388.53
512765.06 5403791 388.66
512764.97 5403787.5 385.66
512764.94 5403786.5 385.13
512764.91 5403784.5 384.25
512764.69 5403768.5 381.07001
512764.59 5403765 378.76999
512764.59 5403763.5 378.26999
512764.38 5403751 375.64999
512764.38 5403749.5 375.17001
512764.38 5403748.5 375.48001
512764.34 5403747 374.66
512764.28 5403744.5 372.25
512764.25 5403743 371.64999
512764.12 5403740.5 365.87
512764.12 5403739.5 365.89001
512764.09 5403738 365.79999
512764.09 5403737 365.89999
512764.06 5403735.5 365.91
512764.06 5403734 365.84
512764.03 5403733 365.82999
512764 5403729 365.78
512763.97 5403727.5 365.70001
512763.97 5403726.5 366.17999
512763.94 5403725 364.92999
512763.84 5403722.5 360.91
512763.81 5403721 360.64001
512763.78 5403719.5 358.81
512763.75 5403715.5 359.01001
512763.69 5403714 357
512763.62 5403710 356.01001
512763.59 5403708.5 354.70001
512763.56 5403707 353.57001
512763.25 5403693 343.5
512763.25 5403691.5 343.95999
512763.25 5403690 344.06
512763.22 5403689 344.60001
512763.22 5403687.5 344.45999
512763.16 5403683.5 344.84
512763.16 5403682 345.69
512763.16 5403680.5 345.57999
512763.09 5403678 343.98999
512763.09 5403676.5 343.76999
512763.06 5403675 343.54001
512762.97 5403670.5 340.17001
512762.94 5403669 340.10001
512762.94 5403667.5 340.06
512762.91 5403666 339.95001
512762.88 5403664.5 339.92001
512762.88 5403663.5 339.81
512762.84 5403661 339.79001
512762.84 5403660 339.81
512762.81 5403659 339.62
512762.78 5403658.5 338.72
512762.78 5403657.5 339.06
512762.75 5403657.5 339.03
512762.75 5403657 339.01001
512762.75 5403657 338.98001
512762.75 5403657 339.01001
512762.72 5403656.5 339.03
512762.72 5403656.5 339.07999
512762.72 5403656.5 339.04999
512762.69 5403656.5 339.01001
512762.69 5403656 338.98001
512762.69 5403656 339.06
512762.69 5403656 339.07001
512762.66 5403656 339
512762.66 5403656 339.07999
512762.66 5403656 339.19
512762.59 5403656 339.04001
512762.59 5403656.5 339.07001
512762.59 5403657 339.03
512762.59 5403659.5 339.73999
512762.59 5403662 339.82001
512762.59 5403663.5 339.95001
512762.59 5403664.5 339.98001
512762.59 5403666 339.92001
512762.59 5403667 340.07999
512762.59 5403668.5 340.04001
512762.59 5403670 340.10999
512762.62 5403675.5 343.48001
512762.62 5403678 344.09
512762.66 5403681 345.54001
512762.62 5403687.5 344.54999
512762.62 5403688.5 344.62
512762.62 5403690 344.47
512762.62 5403691.5 343.98999
512762.62 5403692.5 343.73001
512762.75 5403701.5 351.82999
512762.75 5403703 351.95999
512762.78 5403704.5 353.64001
512762.78 5403707 353.75
512762.78 5403708.5 354.35999
512762.78 5403709.5 355.07001
512762.81 5403711 356.20999
512762.84 5403712.5 357.82001
512762.84 5403714 358.82001
512762.84 5403716.5 358.82999
512762.88 5403718 359.79001
512762.88 5403722 361.20999
512762.94 5403724.5 364.79999
512762.94 5403726 365.76999
512762.94 5403727.5 365.72
512762.94 5403732.5 365.85001
512762.94 5403734 365.95999
512762.94 5403735 365.85999
512762.94 5403739 365.82001
512763.03 5403743 372.79001
512763.03 5403745.5 373.17999
512763.06 5403747 374.06
512763.06 5403748 375.51999
512763.06 5403749.5 375.60999
512763.12 5403769.5 381.82001
512763.16 5403771 382.03
512763.16 5403778.5 383.89001
512763.16 5403779.5 383.89001
512763.16 5403781 384.19
512763.16 5403782 384.09
512763.19 5403783.5 384.92999
512763.19 5403787 386.10999
512763.19 5403788 386.81
512763.22 5403790.5 388.76001
512763.22 5403792 388.73001
512763.22 5403794 388.63
512763.22 5403795.5 388.60999
512763.22 5403796 388.57999
512763.22 5403797 388.63
512763.22 5403797.5 388.60001
512763 5403797 388.63
512762.97 5403796 388.57001
512762.97 5403795 388.64999
512762.94 5403793 388.73999
512762.91 5403790.5 388.76001
512762.84 5403788.5 386.84
512762.84 5403787.5 386.57999
512762.81 5403786.5 385.92999
512762.78 5403785 385.57999
512762.75 5403784 385.13
512762.75 5403783 384.29999
512762.69 5403780.5 383.95001
512762.69 5403779.5 383.73001
512762.66 5403778 383.98001
512762.59 5403772 382.57999
512762.56 5403771 382.26001
512762.12 5403745.5 373.97
512762.09 5403743 372.47
512762.06 5403742 371.44
512762.03 5403740.5 371.76001
512761.88 5403735.5 365.82999
512761.88 5403734 365.91
512761.88 5403732.5 365.82001
512761.81 5403729 365.82001
512761.81 5403727.5 365.76999
512761.78 5403726 365.70001
512761.69 5403723.5 361.62
512761.66 5403722 360.76001
512761.62 5403718 361.51999
512761.56 5403716.5 359.01999
512761.56 5403715.5 359
512761.53 5403714 358.75
512761.5 5403712.5 357.67999
512761.47 5403711.5 356.97
512761.44 5403710 354.95001
512761.38 5403707 354.34
512761.38 5403704.5 354.37
512761.34 5403703 353.87
512761.28 5403701.5 351.92999
512761.28 5403700 351.63
512761.25 5403699 351.59
512761.16 5403693.5 349.38
512761.09 5403691.5 346.39999
512761.06 5403690 344.20001
512761.06 5403689 344.91
512760.94 5403680.5 344.79999
512760.94 5403679 344.48001
512760.84 5403673.5 343.17999
512760.84 5403672 343.60999
512760.75 5403669 340.06
512760.72 5403667.5 339.94
512760.72 5403666 339.85001
512760.69 5403664.5 339.82001
512760.69 5403663.5 339.72
512760.66 5403662 339.60001
512760.62 5403661 339.62
512760.62 5403658.5 339.67001
512760.59 5403658 339.64999
512760.59 5403657.5 339.48999
512760.56 5403657.5 339.45999
512760.56 5403657 339.26001
512760.56 5403657 339.19
512760.53 5403657 339.32999
512760.53 5403656.5 338.92001
512760.53 5403656.5 338.87
512760.5 5403656.5 338.85999
512760.5 5403656 338.85001
512760.5 5403656 338.64999
512760.47 5403656 338.54001
512760.47 5403656 338.45999
512760.47 5403655.5 338.45999
512760.44 5403655.5 338.41
512760.44 5403655.5 338.39001
512760.41 5403655.5 338.39001
512760.38 5403655.5 338.42001
512760.38 5403656 338.45999
512760.38 5403656 338.79001
512760.38 5403656.5 339.19
512760.38 5403657.5 339.60001
512760.38 5403658.5 339.57001
512760.38 5403661 339.60999
512760.38 5403662 339.63
512760.38 5403663.5 339.79001
512760.38 5403664.5 339.82001
512760.38 5403666 339.85001
512760.38 5403667 339.85999
512760.38 5403668.5 339.98999
512760.44 5403670 343.59
512760.44 5403671.5 343.64001
512760.44 5403672.5 343.76001
512760.44 5403676.5 343.47
512760.44 5403678 343.95001
512760.44 5403679.5 344.67001
512760.44 5403680.5 344.73999
512760.44 5403687.5 344.67999
512760.44 5403688.5 345.06
512760.44 5403690 344.13
512760.47 5403691.5 346.54999
512760.56 5403699 351.64999
512760.56 5403700 351.69
512760.56 5403701.5 353.20999
512760.59 5403703 354.20001
512760.59 5403704 354.29001
512760.59 5403705.5 354.37
512760.59 5403707 354.47
512760.59 5403708 355.03
512760.59 5403709.5 355.01999
512760.62 5403711 357.26999
512760.62 5403712.5 357.79999
512760.66 5403714 358.75
512760.66 5403715 358.94
512760.66 5403716.5 358.98001
512760.69 5403718 361.09
512760.72 5403719.5 362.92999
512760.69 5403722 362.44
512760.72 5403724.5 363.87
512760.75 5403727 365.89001
512760.75 5403728.5 365.67999
512760.75 5403732.5 365.88
512760.75 5403733.5 365.97
512760.75 5403735 365.92999
512760.84 5403741.5 371.95001
512760.84 5403743 372.85999
512760.97 5403775.5 383.37
512760.97 5403778 383.79001
512760.97 5403779.5 383.89001
512761 5403780.5 384.62
512761 5403782 384.42001
512761 5403785.5 386.20001
512761.03 5403787 386.89001
512761.03 5403788 387.79001
512761.03 5403790.5 388.14001
512761.06 5403793 388.94
512761.03 5403795 388.79001
512761.03 5403796 388.70001
512761.03 5403798 388.64999
512761.03 5403798.5 388.73001
512761 5403798.5 388.66
512761 5403799 388.64999
512761 5403799 388.73999
512761 5403799 388.70001
512761 5403799.5 388.72
512760.84 5403799 388.67999
512760.81 5403798 388.66
512760.78 5403796 388.79999
512760.78 5403795 388.82999
512760.72 5403790.5 388.14999
512760.69 5403789.5 388.29001
512760.69 5403788.5 387.81
512760.66 5403787.5 387.25
512760.62 5403786 386.66
512760.59 5403784 385.5
512760.53 5403781.5 384.47
512760.53 5403780.5 384.76001
512760.5 5403778 383.98999
512760.44 5403775.5 383.45999
512760.34 5403769.5 381.98001
512760 5403747 376.04999
512759.94 5403744 374.06
512759.91 5403743 373.29999
512759.72 5403736.5 365.82001
512759.69 5403734 365.95001
512759.66 5403732.5 365.88
512759.66 5403731.5 365.89999
512759.62 5403730 365.79999
512759.59 5403727.5 365.82001
512759.56 5403726 364.41
512759.38 5403716.5 359.01001
512759.38 5403715.5 359.04999
512759.34 5403714 358.95999
512759.31 5403712.5 358.56
512759.28 5403711.5 357.60001
512759.25 5403710 357
512759.25 5403708.5 356.67999
512759.19 5403705.5 354.47
512759.16 5403704.5 354.57001
512759.12 5403703 354.22
512759.12 5403701.5 354.10001
512759.09 5403700 353.42001
512759.06 5403699 351.85001
512759 5403694.5 351.26999
512758.88 5403690 346.98999
512758.84 5403688.5 345.41
512758.81 5403686 345.51999
512758.78 5403683 345.29001
512758.69 5403677.5 343.87
512758.66 5403674.5 343.41
512758.62 5403673.5 343.14001
512758.53 5403667.5 339.78
512758.5 5403666 339.67001
512758.47 5403664.5 339.64001
512758.47 5403663 339.64999
512758.44 5403662 339.54001
512758.44 5403660.5 339.42999
512758.41 5403659.5 339.47
512758.41 5403659 339.38
512758.38 5403658.5 339.35999
512758.38 5403657.5 339.37
512758.38 5403657.5 339.28
512758.34 5403657 339.35999
512758.34 5403657 339.26001
512758.34 5403656.5 339.34
512758.34 5403656.5 339.35001
512758.31 5403656.5 339.26001
512758.31 5403656 339.31
512758.28 5403656 339.23001
512758.28 5403656 339.35001
512758.28 5403656 339.34
512758.25 5403655.5 339.35001
512758.25 5403655.5 339.42001
512758.25 5403655.5 339.54001
512758.19 5403656 339.41
512758.19 5403656 339.35001
512758.19 5403656.5 339.34
512758.19 5403657.5 339.35999
512758.16 5403658.5 339.37
512758.16 5403659.5 339.41
512758.16 5403660.5 339.56
512758.16 5403662 339.57001
512758.16 5403663 339.63
512758.16 5403664.5 339.67999
512758.16 5403666 339.69
512758.19 5403667 339.79001
512758.22 5403671 343.17999
512758.22 5403672.5 343.26001
512758.22 5403674 343.35001
512758.22 5403676.5 343.70999
512758.25 5403679 344.54999
512758.25 5403683.5 345.48999
512758.25 5403686 345.57001
512758.28 5403690 346.53
512758.34 5403694.5 351.48999
512758.34 5403696 351.79001
512758.34 5403697.5 351.79999
512758.38 5403698.5 352.69
512758.38 5403700 353.78
512758.38 5403701.5 353.97
512758.38 5403702.5 354.23001
512758.38 5403704 354.60001
512758.41 5403705.5 354.92001
512758.41 5403707 355.12
512758.44 5403711 358.84
512758.44 5403712.5 358.78
512758.47 5403713.5 358.91
512758.47 5403715 359.07999
512758.53 5403722 363.45001
512758.53 5403725.5 364.94
512758.56 5403727 365.42999
512758.56 5403728.5 365.92001
512758.56 5403732.5 365.89001
512758.56 5403733.5 365.91
512758.56 5403735 365.95999
512758.56 5403736.5 365.91
512758.62 5403739 371.29001
512758.62 5403740 372.04999
512758.66 5403742.5 373.97
512758.69 5403745 376.06
512758.75 5403756.5 379.17001
512758.75 5403758 379.12
512758.75 5403762 379.16
512758.78 5403769.5 382.09
512758.78 5403770.5 382.32999
512758.81 5403775.5 383.79001
512758.81 5403777 383.95001
512758.81 5403782 385.32999
512758.84 5403785.5 386.84
512758.88 5403788 388.04001
512758.88 5403789 388.39999
512758.88 5403790.5 388.45001
512758.84 5403797 388.64001
512758.84 5403797.5 388.73999
512758.84 5403798 388.69
512758.84 5403798 388.67999
512758.84 5403798.5 388.69
512758.84 5403798.5 388.72
512758.81 5403799 388.70999
512758.81 5403799 388.78
512758.81 5403799 388.75
512758.81 5403799.5 388.76001
512758.78 5403799.5 388.70999
512758.78 5403799.5 388.69
512758.78 5403800 388.76001
512758.78 5403800 388.70001
512758.75 5403800 388.73999
512758.75 5403800 388.73999
512758.75 5403800 388.73001
512758.75 5403800 388.75
512758.72 5403800 388.73999
512758.72 5403800.5 388.70999
512758.72 5403800.5 388.67001
512758.69 5403800.5 388.70999
512758.69 5403800.5 388.69
512758.69 5403800 388.72
512758.66 5403800 388.64001
512758.66 5403798.5 388.73999
512758.53 5403790.5 388.59
512758.53 5403789.5 388.35999
512758.5 5403788 388.32001
512758.47 5403787 388.09
512758.44 5403785 386.81
512758.41 5403783.5 386.45999
512758.38 5403781.5 385.42999
512758.28 5403776.5 384.39001
512758.22 5403772 382.92001
512758.06 5403763 379.25
512758 5403759.5 379.16
512757.97 5403758 379.14001
512757.97 5403757 379.14001
512757.78 5403745.5 376.03
512757.75 5403744 375.89999
512757.72 5403743 374.28
512757.66 5403740.5 372.64001
512757.62 5403739 371.66
512757.62 5403737.5 371.76001
512757.5 5403734 366.03
512757.47 5403730 368.45001
512757.34 5403723.5 364.48001
512757.31 5403722 363.89001
512757.28 5403720.5 363.31
512757.25 5403718 362.56
512757.19 5403715 361.23001
512757.12 5403714 359.03
512757.12 5403712.5 359
512757.12 5403711 359.10001
512757.09 5403710 358.72
512756.97 5403705.5 354.92001
512756.97 5403704 354.98999
512756.94 5403703 354.60001
512756.91 5403701.5 354.06
512756.91 5403700 354.01999
512756.88 5403699 353.94
512756.88 5403697.5 352.82001
512756.81 5403694.5 351.70001
512756.78 5403693 350.85001
512756.75 5403691.5 349.62
512756.69 5403690 347.35999
512756.66 5403688.5 346.35999
512756.62 5403687.5 346.31
512756.62 5403686 345.19
512756.59 5403684.5 345.01999
512756.5 5403677.5 344
512756.44 5403674.5 343.26001
512756.44 5403673 343.53
512756.41 5403672 343.70001
512756.34 5403667.5 341.48001
512756.28 5403665.5 339.66
512756.28 5403664.5 339.51001
512756.25 5403663 339.45001
512756.25 5403661.5 339.34
512756.22 5403660.5 339.38
512756.22 5403659.5 339.32001
512756.19 5403658.5 339.25
512756.19 5403658 339.31
512756.16 5403657.5 339.25
512756.16 5403657.5 339.23999
512756.16 5403657 339.23999
512756.12 5403657 339.20001
512756.12 5403656.5 339.19
512756.12 5403656.5 339.22
512756.12 5403656.5 339.12
512756.12 5403656 339.10001
512756.09 5403656 339.14999
512756.09 5403656 339.14001
512756.09 5403656 339.07999
512756.06 5403656 339.04999
512756.06 5403655.5 339.10999
512756.06 5403655.5 339.07999
512756.03 5403655.5 339.09
512756.03 5403655.5 339.06
512756.03 5403655.5 339.01999
512756.03 5403655.5 339.01001
512756 5403655.5 339.01999
512756 5403655.5 339.03
512755.97 5403655.5 339.04999
512755.97 5403656 339.10001
512755.97 5403656.5 339.14999
512755.97 5403657.5 339.20001
512755.97 5403658 339.28
512755.97 5403659.5 339.31
512755.97 5403660.5 339.35001
512755.97 5403662 339.42999
512755.97 5403663 339.41
512755.97 5403664.5 339.60001
512755.97 5403665.5 339.67001
512756 5403667 341.5
512756.03 5403670 343.78
512756.03 5403672.5 343.82001
512756.03 5403673.5 343.20999
512756.03 5403675 343.14001
512756.06 5403684.5 345.35001
512756.06 5403686 345.26999
512756.09 5403688.5 346.54999
512756.09 5403690 347.76001
512756.12 5403691.5 349.57999
512756.16 5403693 351.66
512756.16 5403694.5 351.70999
512756.16 5403696 351.82001
512756.19 5403697.5 353.07999
512756.19 5403698.5 354.13
512756.19 5403701.5 354.45999
512756.22 5403705.5 356.20999
512756.25 5403707 357.07001
512756.25 5403708 357.67999
512756.25 5403711 358.81
512756.28 5403712 359.01001
512756.28 5403713.5 359.06
512756.31 5403715 361.59
512756.31 5403717.5 362.20999
512756.31 5403719 362.85999
512756.34 5403720.5 363.38
512756.34 5403721.5 364
512756.34 5403723 364.54001
512756.41 5403729.5 368.63
512756.44 5403732.5 370.14999
512756.44 5403733.5 370.20001
512756.47 5403735 371.79001
512756.47 5403736 371.95001
512756.53 5403744 375.92999
512756.56 5403759 379.20999
512756.56 5403760.5 379.12
512756.56 5403761.5 379.19
512756.56 5403763 379.29001
512756.56 5403764.5 379.26999
512756.62 5403771.5 382.91
512756.62 5403773 383.26001
512756.62 5403775.5 384.29999
512756.66 5403776.5 385.44
512756.66 5403779 385.53
512756.66 5403780.5 385.98001
512756.66 5403781.5 386.01999
512756.66 5403783 386.48001
512756.69 5403784 387.44
512756.69 5403785 387.64001
512756.69 5403786.5 388.13
512756.69 5403787.5 388.5
512756.69 5403789 388.78
512756.69 5403790 388.85001
512756.69 5403791.5 388.89001
512756.69 5403794 388.89001
512756.69 5403795 389.06
512756.69 5403796 389.17999
512756.69 5403796.5 389.39001
512756.56 5403800 388.76999
512756.56 5403800 388.73001
512756.56 5403800 388.69
512756.53 5403800 388.78
512756.53 5403800 388.69
512756.44 5403796 389.19
512756.44 5403795 389.04001
512756.41 5403793.5 388.98999
512756.38 5403791.5 388.73999
512756.38 5403790.5 388.89999
512756.34 5403789 388.76999
512756.34 5403788 388.41
512756.31 5403786 388.04001
512756.28 5403784.5 387.48001
512756.25 5403783.5 387.41
512756.22 5403782.5 386.72
512756.22 5403781.5 386.14999
512756.16 5403779 385.41
512756.12 5403776.5 385.60001
512756.12 5403775.5 384.48999
512756.09 5403774 384.04999
512756.06 5403773 383.29001
512756.03 5403771.5 382.81
512755.94 5403768 379.42001
512755.91 5403765.5 379.56
512755.88 5403764.5 379.29001
512755.88 5403763 379.25
512755.88 5403762 379.28
512755.84 5403760.5 379.20999
512755.59 5403744 375.92001
512755.56 5403742.5 375.03
512755.44 5403736.5 371.95999
512755.41 5403735 371.92001
512755.38 5403733.5 371.32999
512755.31 5403731 368.67001
512755.31 5403730 368.47
512755.19 5403724.5 365.39001
512755.16 5403723 364.98999
512755.12 5403722 364.48999
512755 5403714 361.48999
512754.94 5403712.5 359.16
512754.94 5403711 358.94
512754.91 5403710 358.75
512754.88 5403708.5 357.60999
512754.88 5403707 357.60001
512754.84 5403705.5 357.20999
512754.72 5403698.5 354.14001
512754.69 5403697.5 354
512754.66 5403696 352.82999
512754.59 5403693 351.70999
512754.59 5403692 351.84
512754.53 5403690 349.54999
512754.53 5403689 349.16
512754.47 5403687 346.76001
512754.44 5403686 346.73001
512754.28 5403677 343.29001
512754.28 5403676 343.72
512754.19 5403670 342.89001
512754.12 5403668.5 339.60999
512754.12 5403667 339.67999
512754.09 5403665.5 339.67999
512754.06 5403663 339.45999
512754.03 5403661.5 339.20001
512754.03 5403660.5 339.13
512754 5403659.5 339.23999
512754 5403658.5 339.10999
512754 5403658 339.07999
512753.97 5403657.5 339.10001
512753.97 5403657 339.04001
512753.97 5403657 339.10999
512753.94 5403656.5 339.16
512753.94 5403656.5 339.12
512753.94 5403656.5 339.17001
512753.91 5403656.5 339.10001
512753.91 5403656 339.10999
512753.91 5403656 339.10001
512753.88 5403656 339.09
512753.88 5403655.5 339.04001
512753.88 5403655.5 339.07999
512753.88 5403655.5 338.98001
512753.88 5403655.5 339
512753.84 5403655.5 339.04001
512753.84 5403655.5 338.98001
512753.84 5403655 338.95001
512753.81 5403655 339.01999
512753.81 5403655 338.95999
512753.78 5403655.5 338.95001
512753.78 5403655.5 338.97
512753.78 5403656 338.98001
512753.78 5403656.5 338.98999
512753.78 5403657.5 339.12
512753.78 5403658 339.12
512753.78 5403659 339.14999
512753.78 5403660.5 339.20001
512753.78 5403661.5 339.35001
512753.78 5403663 339.44
512753.78 5403665.5 339.69
512753.78 5403667 339.57001
512753.78 5403668 339.64999
512753.81 5403669.5 342.82999
512753.84 5403675 344.25
512753.84 5403677.5 343.32999
512753.88 5403686 347.06
512753.94 5403689 349.64001
512753.97 5403691.5 351.82001
512753.97 5403693 351.82001
512753.97 5403696 353.04001
512754.03 5403704 356.73999
512754.06 5403705.5 357.44
512754.06 5403707 357.5
512754.09 5403709.5 358.89001
512754.09 5403711 358.98001
512754.09 5403712 359.10999
512754.12 5403717.5 362.95999
512754.19 5403724.5 365.45999
512754.22 5403729.5 368.14999
512754.22 5403731 368.94
512754.25 5403732 369.70001
512754.28 5403733.5 371.54001
512754.28 5403735 371.85999
512754.28 5403738.5 373.20001
512754.31 5403741 374.62
512754.34 5403742.5 375.34
512754.38 5403761.5 379.32999
512754.38 5403763 379.32999
512754.38 5403764 379.41
512754.38 5403765.5 379.41
512754.38 5403767 379.53
512754.38 5403768 379.51999
512754.44 5403769 383.23001
512754.44 5403773 383.51999
512754.47 5403774 384.39001
512754.47 5403778 385.14999
512754.47 5403779 385.82001
512754.5 5403780 386.26999
512754.5 5403781.5 386.98999
512754.5 5403782.5 387.54999
512754.5 5403784 387.92999
512754.5 5403785 388.26001
512754.53 5403786.5 388.60999
512754.53 5403787.5 388.63
512754.53 5403789 389.19
512754.53 5403790 389.48001
512754.53 5403792.5 389.47
512754.53 5403795 389.10999
512754.53 5403795.5 389.41
512754.53 5403797 389.53
512754.53 5403797.5 389.64999
512754.5 5403798 389.56
512754.5 5403798.5 389.62
512754.5 5403798.5 389.60999
512754.5 5403799 389.70999
512754.47 5403799 389.62
512754.47 5403799 389.88
512754.47 5403799 389.82001
512754.47 5403799.5 389.70999
512754.44 5403799.5 389.79001
512754.34 5403799 389.70001
512754.31 5403798.5 389.64999
512754.31 5403797.5 389.64001
512754.31 5403796.5 389.57999
512754.28 5403795.5 389.57001
512754.25 5403794.5 389.10001
512754.25 5403793.5 389.34
512754.22 5403790 389.70999
512754.19 5403789 389.28
512754.16 5403788 388.76999
512754.09 5403783.5 387.76001
512754.06 5403782 387.62
512754.06 5403781 387.06
512754.03 5403780 386.39001
512754 5403779 386.10999
512753.97 5403776.5 385.23999
512753.91 5403774 384.32999
512753.84 5403769 383.20001
512753.75 5403766.5 379.51999
512753.72 5403765.5 379.45001
512753.72 5403764 379.32001
512753.69 5403763 379.39999
512753.69 5403761.5 379.38
512753.66 5403760.5 379.38
512753.38 5403742.5 375.45001
512753.38 5403741.5 374.89001
512753.34 5403740 374.16
512753 5403724.5 365.81
512753 5403723 365.64001
512752.97 5403722 364.92001
512752.94 5403720.5 364.38
512752.88 5403718 363.32001
512752.88 5403716.5 362.79999
512752.75 5403711 358.94
512752.72 5403709.5 358.95999
512752.69 5403708.5 358.79999
512752.66 5403707 357.94
512752.66 5403705.5 357.37
512752.62 5403704 357.31
512752.62 5403703 356.78
512752.47 5403696 354.12
512752.41 5403693 352.06
512752.41 5403691.5 351.79999
512752.38 5403690 351.85999
512752.31 5403687.5 349.91
512752.25 5403684.5 346.87
512752.12 5403680 343.97
512752.06 5403673 343.98001
512752.03 5403671.5 344.14999
512752.03 5403670.5 344.04999
512752 5403669 343.51999
512751.97 5403667.5 343.42001
512751.91 5403665.5 339.70999
512751.88 5403664 339.85999
512751.84 5403661.5 339.31
512751.84 5403660.5 339.20001
512751.81 5403659.5 339.04999
512751.81 5403658.5 339.01999
512751.78 5403658 338.97
512751.78 5403657.5 339.01999
512751.75 5403657 338.95001
512751.75 5403657 338.92999
512751.75 5403656.5 339.01999
512751.75 5403656.5 338.92001
512751.72 5403656.5 338.89999
512751.72 5403656 338.89999
512751.72 5403656 338.91
512751.69 5403656 338.88
512751.69 5403656 338.89999
512751.69 5403655.5 338.85001
512751.66 5403655.5 338.87
512751.66 5403655.5 338.95999
512751.66 5403655.5 338.87
512751.66 5403655 338.89999
512751.62 5403655 338.91
512751.62 5403655 338.85999
512751.62 5403655 338.89001
512751.62 5403655 338.85001
512751.59 5403655 338.88
512751.59 5403655 338.89999
512751.59 5403655.5 338.82001
512751.59 5403656 338.92001
