# .PCD v0.7 - Point Cloud Data file format
VERSION 0.7
FIELDS x y z rgb
SIZE 4 4 4 4
TYPE F F F U
COUNT 1 1 1 1
WIDTH 151
HEIGHT 1
VIEWPOINT 0 0 0 1 0 0 0
POINTS 151
DATA ascii
0.42841649 0.19493291 0.62415785 3289650
0.44708902 0.19700898 0.6273427 7762184
0.45169234 0.19371817 0.62890184 5723160
0.43865466 0.20837939 0.62611008 8091152
0.44159731 0.2041465 0.62501705 7894039
0.43412322 0.21470733 0.62537587 6512936
0.427452 0.22490624 0.62652361 6512676
0.43108207 0.22001724 0.62166679 5065510
0.42874068 0.2326782 0.6253441 4605494
0.43103918 0.23662947 0.62761444 4473911
0.43348986 0.24007118 0.62903208 3881781
0.44818214 0.18061514 0.63641083 5657899
0.44648603 0.19740626 0.63466728 6119724
0.45271775 0.19398968 0.63464189 6842395
0.42039126 0.20242785 0.63304764 7368467
0.4382439 0.20771772 0.63541692 7039768
0.44150528 0.202499 0.6350559 7039769
0.42984191 0.21979927 0.63364166 2501214
0.43325311 0.21486448 0.63503855 2435423
0.41597402 0.22374026 0.63745689 3815982
0.42717439 0.22454549 0.63529879 5526325
0.42772055 0.23184776 0.63568264 4934723
0.43217361 0.23758443 0.63588649 5197896
0.43720186 0.24212375 0.63400716 4671030
0.42966914 0.19501378 0.64732629 6974238
0.44614145 0.1972903 0.64529508 5988399
0.45478424 0.19400278 0.643332 7697177
0.4381555 0.20735849 0.6452539 8025093
0.44149637 0.2024802 0.64502585 6908444
0.42955244 0.21906386 0.6465714 2040933
0.43324414 0.21422768 0.64466459 2304097
0.41828653 0.22434095 0.64578086 5460533
0.42682195 0.22482464 0.6453371 5920816
0.42769551 0.23228914 0.64418995 6119257
0.43471444 0.2395647 0.64125192 5065537
0.43764091 0.24199244 0.64322805 5065789
0.44607037 0.19633523 0.65498245 7302421
0.45109063 0.19230488 0.65666521 7696135
0.43742183 0.20682961 0.65535593 8025093
0.44119692 0.20174794 0.65439987 8091140
0.42869699 0.2180488 0.65556991 2106469
0.43263236 0.21328741 0.65490842 2304097
0.4268679 0.22482969 0.65443188 5986606
0.40816447 0.23625691 0.65947556 4803132
0.42684194 0.23262717 0.65435451 6645077
0.4310914 0.23781216 0.65881908 5328706
0.43889225 0.24302267 0.65091753 5197371
0.42195094 0.18865469 0.66997665 5065788
0.4451488 0.1964556 0.66459918 8288256
0.45254287 0.19158417 0.66496843 8419847
0.43682835 0.20606436 0.66549051 7827720
0.44038674 0.20119171 0.66357756 8353792
0.42937523 0.21847087 0.66331649 2172261
0.43192643 0.21394798 0.6652168 2106724
0.42716411 0.22465193 0.66459256 3290451
0.42680901 0.23287582 0.66541487 5657648
0.43241817 0.23810509 0.66479462 4473658
0.43753368 0.24197543 0.66593802 4671029
0.44299355 0.24570177 0.66693521 6052130
0.44437656 0.19607061 0.6750384 8354048
0.45295969 0.19222401 0.67424649 9078028
0.4172875 0.20377348 0.67146444 8667668
0.43705514 0.2055625 0.67541593 8222465
0.44035602 0.2005523 0.67401344 8354048
0.42888013 0.21800843 0.6757288 5856294
0.43210283 0.21319754 0.67511249 4935733
0.42660549 0.22508916 0.67496842 5987880
0.42693812 0.23214927 0.67499673 6118190
0.43287572 0.23759563 0.67354274 4539710
0.43860376 0.24196796 0.67424631 5197368
0.44411576 0.24570438 0.67415106 5920551
0.45461762 0.18992037 0.68973857 5788955
0.44518381 0.19565894 0.68517751 8551168
0.45216176 0.19064043 0.68710136 7499021
0.43743783 0.20557536 0.68514305 8354048
0.44050971 0.20076406 0.68458939 8354048
0.42898819 0.21818657 0.68432409 3563842
0.43241939 0.21306108 0.68463016 5335593
0.42626396 0.22424048 0.68481541 5661738
0.42817754 0.23244382 0.68444574 4802878
0.43257993 0.23780432 0.6853888 4408122
0.43696886 0.24113984 0.68933505 4276277
0.44417435 0.24576415 0.68415523 5986596
0.45420769 0.18973242 0.69553638 7170061
0.44420221 0.19607379 0.69492316 8354048
0.45249733 0.19121298 0.69269818 8419840
0.43682751 0.2054566 0.69527823 8354048
0.44050571 0.2009829 0.69141865 8419584
0.428179 0.21757922 0.69540733 3563841
0.43164819 0.21289237 0.69446987 6123038
0.44283643 0.21364591 0.69436741 8347144
0.42548797 0.22489533 0.69505495 6448926
0.42849562 0.23333637 0.69446647 3947571
0.4329524 0.23802955 0.69538462 3684405
0.43851122 0.24210443 0.69334364 4342066
0.4430871 0.24460107 0.69634962 5591846
0.44880915 0.18979645 0.70396131 8551187
0.45369557 0.18948075 0.70597076 8354067
0.43883228 0.19810657 0.70702904 8870412
0.44314256 0.19443232 0.70531845 8346633
0.41122651 0.20778947 0.70454866 12361222
0.43550661 0.20500422 0.7049759 8347911
0.42797706 0.21611749 0.70532894 7435020
0.43117112 0.21116637 0.7052412 8353792
0.42492649 0.22451034 0.70520741 7235856
0.42752349 0.23241009 0.70502061 3815985
0.4326598 0.23762758 0.70666534 3815732
0.41990224 0.24602018 0.70270634 6249502
0.43614304 0.24012746 0.70105243 3552820
0.45460445 0.18976755 0.71515906 9142786
0.43938011 0.19892783 0.71315938 8339219
0.44436425 0.19390072 0.71570212 9460495
0.45217881 0.19089453 0.71760362 10523652
0.43556809 0.2049792 0.7154904 8409357
0.44036895 0.20002018 0.71960014 8667668
0.4277117 0.21639992 0.7155326 8354048
0.43097863 0.21167183 0.71615851 8419840
0.42555672 0.22470821 0.71521151 7433233
0.45771426 0.22975816 0.71260518 10393091
0.46790057 0.22296484 0.71281511 13746946
0.42828625 0.23222379 0.71348816 4670777
0.4328602 0.23645179 0.71609002 5591596
0.43896052 0.24162707 0.71431637 5854755
0.44350836 0.24410543 0.71722001 6315286
0.4458586 0.1970741 0.72329366 10645262
0.4547233 0.19551317 0.72341788 13813504
0.46319988 0.19789857 0.72265345 13746946
0.43761864 0.20696673 0.72267801 9986064
0.44479546 0.20479421 0.72600222 12622856
0.45502681 0.20492123 0.7270593 14208000
0.46457228 0.20515811 0.72553873 14668544
0.47241867 0.20626022 0.72135288 14865666
0.42868039 0.21845813 0.72130978 9406464
0.43450531 0.21528542 0.72457945 11379712
0.44476095 0.21479732 0.72754544 13484800
0.45493296 0.21494335 0.72827369 14142464
0.46453649 0.21493363 0.72730768 14537216
0.47212824 0.21373682 0.72450882 14142211
0.42794141 0.22445974 0.72252196 9800960
0.43478674 0.22518253 0.72611445 12695296
0.44465041 0.22486638 0.72794545 13747968
0.45482025 0.22491412 0.72805685 14274048
0.46299306 0.22418343 0.72645473 13747971
0.42948207 0.23098373 0.72180724 8156419
0.43572432 0.23408516 0.7239185 10722050
0.44469443 0.23504581 0.72692943 12629504
0.45390895 0.23424527 0.72732532 13616386
0.46092173 0.23274212 0.72461635 12695304
0.44588101 0.24201 0.72375602 10327298
0.45152226 0.24059561 0.72596079 10722317
0.44122168 0.23612913 0.73439121 13550336
