# .PCD v0.7 - Point Cloud Data file format
VERSION 0.7
FIELDS x y z rgb
SIZE 4 4 4 4
TYPE F F F U
COUNT 1 1 1 1
WIDTH 153
HEIGHT 1
VIEWPOINT 0 0 0 1 0 0 0
POINTS 153
DATA ascii
0.43956438 -0.063353933 0.62837672 2892053
0.44624197 -0.068173841 0.62096208 2696481
0.43640405 -0.059296183 0.62963462 2367258
0.43763876 -0.04523766 0.62889165 2692612
0.44225529 -0.040912848 0.62604141 2891279
0.44633627 -0.03763682 0.62572861 3022610
0.45333412 -0.032323744 0.62649429 2824714
0.45882663 -0.028326944 0.62679124 2759435
0.46538538 -0.023913465 0.62709212 2824971
0.47128171 -0.020371411 0.62748021 3023123
0.47384769 -0.018872097 0.62897307 2956301
0.44759876 -0.0714164 0.63536727 3682087
0.45497638 -0.073664322 0.63759601 4079682
0.43783268 -0.062383324 0.63604575 3483932
0.44199768 -0.067687437 0.63562959 3682086
0.43514818 -0.054628681 0.63471377 3353122
0.43707868 -0.045588881 0.63527578 3749430
0.44104341 -0.040809393 0.63155669 3022611
0.44542578 -0.037330523 0.63493276 3618360
0.45350283 -0.032312237 0.63492298 3618360
0.45848575 -0.028496206 0.63338262 3353639
0.46411818 -0.024477867 0.63564706 3816513
0.47106585 -0.020157406 0.63352299 3552051
0.47558004 -0.018099792 0.63677299 4080461
0.44811255 -0.071123593 0.64357007 4408131
0.43817711 -0.063098572 0.64512283 5000268
0.44309378 -0.066945262 0.64429367 5066060
0.43470669 -0.055344727 0.64474672 5330524
0.4375658 -0.046024803 0.64335901 4411748
0.44070122 -0.041230429 0.64538717 4411748
0.44594443 -0.037375379 0.64489287 4345955
0.45304355 -0.032553561 0.64507478 4411491
0.45805511 -0.029043695 0.64510697 4345955
0.4651725 -0.023926655 0.64517051 4345955
0.47358593 -0.018768203 0.64569968 4411747
0.44640407 -0.072100133 0.65759659 4474699
0.43756244 -0.063490197 0.6553424 4144959
0.4412452 -0.068389066 0.65570092 4144959
0.46139824 -0.068990804 0.65184605 3029337
0.43446112 -0.054503743 0.65449905 4277319
0.42658663 -0.049358211 0.65496302 4411748
0.43648911 -0.045533199 0.65630186 5003111
0.44134951 -0.040799428 0.65552258 5266281
0.44609651 -0.037665579 0.65488619 4674662
0.4531762 -0.032869183 0.65458852 4345955
0.45876074 -0.028840318 0.65421599 4411748
0.46417671 -0.024807243 0.65540373 4937576
0.47136825 -0.020980692 0.6539259 4872299
0.47620112 -0.019078502 0.65284735 4872557
0.48190361 -0.018341841 0.65375388 4938092
0.44603014 -0.072125934 0.6660825 4672593
0.4372229 -0.063499264 0.66482097 3750201
0.44102994 -0.068294749 0.66495502 4144960
0.43429926 -0.055486359 0.66514969 4869715
0.44525585 -0.053999841 0.66517854 4608094
0.43663403 -0.046140954 0.66505533 4871782
0.44125414 -0.040991534 0.66457719 5068904
0.45200521 -0.040168431 0.66241264 5067870
0.44587123 -0.037715901 0.66523468 4608614
0.45384941 -0.032292217 0.66506255 2176091
0.48008662 -0.035165343 0.66383064 4674662
0.45854551 -0.028969591 0.66492653 2242140
0.46411934 -0.024745038 0.66546261 3819875
0.47064424 -0.020529505 0.66591299 5266282
0.47613835 -0.01895616 0.66789782 5004143
0.48223242 -0.018944697 0.666287 4410199
0.44707397 -0.072089754 0.67368323 4935509
0.45221663 -0.074424475 0.67579871 4738904
0.4368453 -0.063273884 0.67502189 3881787
0.44151196 -0.068841659 0.67523652 4276802
0.43421862 -0.054164741 0.67468923 5264216
0.4369655 -0.04574557 0.67480606 5200488
0.4413279 -0.041175649 0.67554027 4740454
0.44653523 -0.037401069 0.67501497 3950174
0.45390159 -0.032517355 0.67406601 1974346
0.45844579 -0.029092735 0.67656851 1973833
0.46520686 -0.024276337 0.67501324 3621214
0.47282138 -0.020307466 0.67453176 4543334
0.44589972 -0.071397416 0.68400359 4738128
0.45354319 -0.074479796 0.68096817 5266797
0.43756241 -0.063699178 0.68479782 5197647
0.44144982 -0.068381108 0.68562216 4605510
0.43416595 -0.055225354 0.68520582 5396317
0.4372946 -0.046383567 0.68476146 4608869
0.44141886 -0.041336689 0.68540478 5003368
0.44602636 -0.037132539 0.68458593 4541532
0.4532508 -0.032810844 0.68468052 2302794
0.45879167 -0.02881307 0.68579602 2236745
0.46507037 -0.024595812 0.68488437 4015712
0.47167331 -0.020959562 0.68453139 5792109
0.47569728 -0.019017341 0.68629217 5594730
0.44758129 -0.071862988 0.69478542 5462884
0.4519119 -0.073765494 0.69656199 4937316
0.43777782 -0.06264095 0.69475913 5461076
0.44219252 -0.068049155 0.69518751 5790298
0.43474239 -0.055016827 0.69476753 5198937
0.4377459 -0.046565987 0.69527 4213336
0.44128081 -0.041749015 0.69535744 4279903
0.44626656 -0.037941717 0.6948964 4279647
0.45388272 -0.03263896 0.69532019 3818843
0.45903063 -0.029111678 0.69577491 3950169
0.46453679 -0.025239551 0.69515312 4147805
0.4710235 -0.020908799 0.69673955 4213594
0.47551134 -0.019293195 0.69423062 4542560
0.44952574 -0.071004897 0.7015714 4407100
0.45384422 -0.071882039 0.7032125 3877402
0.43863785 -0.062183246 0.70245582 3946033
0.44460827 -0.06542442 0.70613533 3678476
0.45476297 -0.068427712 0.70800984 4136705
0.46405977 -0.063821606 0.70869076 4530947
0.4727942 -0.06196247 0.70423567 3942421
0.43724704 -0.054346133 0.70422876 3482901
0.44146749 -0.055847846 0.70863074 3414528
0.47521296 -0.057759058 0.70822197 4269064
0.48365945 -0.052293576 0.70846194 4596224
0.43828163 -0.047027677 0.70394981 2889734
0.44371882 -0.043661393 0.70679235 3217923
0.45012152 -0.040783711 0.70950967 3414528
0.48969746 -0.049189366 0.70607197 4466701
0.4919031 -0.044484496 0.70730895 4204819
0.4476954 -0.038671076 0.70374274 3022093
0.45506021 -0.034908772 0.70570475 3152390
0.46237791 -0.031573892 0.70829731 3283200
0.49171695 -0.036656208 0.70943624 4401165
0.50507486 -0.032912247 0.70504779 4465411
0.46596348 -0.026326232 0.70502442 3021578
0.47448996 -0.023200279 0.7062676 3480579
0.48349875 -0.024069589 0.70744348 3875854
0.47702146 -0.019547751 0.70053303 3615006
0.47709626 -0.074720405 0.71682477 4596224
0.44800493 -0.061639138 0.71142447 3611392
0.45436344 -0.063277982 0.71185488 4464896
0.46272451 -0.061127163 0.71093255 4662016
0.44605345 -0.054314189 0.71218807 3939584
0.4547281 -0.05482905 0.71394616 4464896
0.46465415 -0.054659344 0.71322507 4662016
0.47393122 -0.053500321 0.71195227 4596224
0.48094898 -0.051221907 0.7111001 4662016
0.4473308 -0.046682332 0.7115618 3742720
0.45493177 -0.045175388 0.71326792 4136704
0.4646298 -0.044793829 0.7143203 4464896
0.47461268 -0.044859976 0.71406054 4596224
0.48397496 -0.044183478 0.71281117 4793344
0.45722482 -0.038745925 0.7112062 3742720
0.46562654 -0.035552908 0.71216059 4070912
0.47476271 -0.034721572 0.71363974 4333568
0.48423541 -0.035482321 0.71319979 4662016
0.4686878 -0.02892852 0.71030098 3677184
0.47578174 -0.027836232 0.71164656 3939584
0.48315293 -0.027945613 0.71104658 4399360
0.48761898 -0.018343614 0.71404439 3615006
0.48143762 -0.0074072517 0.71279544 4662274
0.47065836 -0.052431814 0.73046088 3218182
