# .PCD v0.7 - Point Cloud Data file format
VERSION 0.7
FIELDS x y z rgb
SIZE 4 4 4 4
TYPE F F F U
COUNT 1 1 1 1
WIDTH 169
HEIGHT 1
VIEWPOINT 0 0 0 1 0 0 0
POINTS 169
DATA ascii
0.62841642 0.22832641 0.62607652 5263695
0.63369089 0.22383341 0.62508529 6251105
0.61941838 0.23899208 0.62726551 4408387
0.62333649 0.23441103 0.62468624 4605765
0.61518431 0.24495952 0.62522691 4408386
0.59148633 0.2586585 0.62929547 3884351
0.6064139 0.25607345 0.62553996 3098168
0.61062366 0.25098997 0.62380588 4869194
0.55561101 0.26677963 0.62102842 3749938
0.59792018 0.26684844 0.62516868 1522984
0.60166103 0.26201272 0.62448472 1522984
0.58834463 0.2790308 0.62490016 2377016
0.59291178 0.27401403 0.62527263 1522984
0.60809737 0.27068835 0.6212675 7436941
0.55265194 0.28443542 0.62195426 3289650
0.56672853 0.28013766 0.6289317 1584962
0.57504696 0.28722504 0.62397951 1522984
0.58495682 0.28492156 0.62523752 1522984
0.57646471 0.29551366 0.62520915 1522984
0.58324224 0.29213837 0.62592375 1980201
0.56774056 0.30690166 0.62603408 1522984
0.57148236 0.30211246 0.62449074 1522984
0.56325942 0.31463856 0.62605596 1522472
0.56649482 0.32536528 0.62310463 1581876
0.56871241 0.33009827 0.62794888 1909040
0.57692623 0.33684176 0.62932622 1909817
0.62774014 0.22716686 0.63536859 5000523
0.63240331 0.22159912 0.63607764 7435380
0.61923569 0.23866333 0.63503253 4539973
0.62269956 0.2338516 0.63504708 4474179
0.61471164 0.24498112 0.63539523 4342850
0.60684663 0.25570151 0.63525671 3295034
0.61050737 0.25073117 0.63519329 4737351
0.59803122 0.26731688 0.6346333 1522984
0.60175896 0.26238075 0.63455516 1522984
0.58950222 0.27897865 0.63443124 1522984
0.5931381 0.27426314 0.63535404 1522728
0.58496535 0.28485852 0.63502491 1522984
0.57625592 0.29569891 0.63499004 1522984
0.58043236 0.29057401 0.63563681 1522984
0.56725401 0.30622378 0.63518614 1522984
0.5713976 0.30143845 0.63533032 1522984
0.56306309 0.31473526 0.63508856 1653803
0.56470841 0.32483661 0.63516331 1319483
0.57438284 0.33484259 0.63518572 1121086
0.58406621 0.34219259 0.63564742 1449531
0.59182382 0.34854519 0.63851595 1646651
0.63705963 0.21987887 0.64203882 8751497
0.64594275 0.21895838 0.646824 8751497
0.62825203 0.22740653 0.644328 2835253
0.63373971 0.22291957 0.64609057 6910577
0.64176846 0.22073501 0.64719158 5333094
0.61930716 0.23936403 0.6432476 2441777
0.62342656 0.23437132 0.64512283 2244655
0.61569715 0.244975 0.64581084 1982509
0.60703021 0.25651395 0.64547622 1851693
0.61110395 0.25146669 0.64632136 2114608
0.59841311 0.26763433 0.64439678 1522729
0.60222197 0.2629866 0.64582485 1521966
0.58951193 0.27927223 0.64238685 1522984
0.59365571 0.27456272 0.64578903 1456426
0.64475942 0.27945259 0.64047229 2310749
0.58545154 0.28530908 0.64509416 1456681
0.59006214 0.28038776 0.64884782 1389103
0.57707381 0.29596522 0.64501899 1456937
0.58092517 0.29156989 0.64684069 1456172
0.59036982 0.29303253 0.64064807 1522984
0.63857597 0.29064083 0.64957458 4674681
0.56811923 0.30765855 0.6440869 1456936
0.57199866 0.30271807 0.64576191 1522474
0.56448299 0.31492156 0.64520407 1719342
0.57086188 0.31997296 0.64279801 3095916
0.56568742 0.32449615 0.64592463 1319231
0.57112801 0.32911468 0.6492328 1253191
0.60661453 0.32375312 0.64883751 2899299
0.56826925 0.33002281 0.64223826 1121086
0.5750975 0.33405772 0.64594132 1121087
0.58122861 0.33884194 0.64678377 1121086
0.58598566 0.34294701 0.64563382 1121086
0.59281701 0.34768075 0.64668685 1515582
0.59468973 0.35055321 0.64026409 2501434
0.62955028 0.22868496 0.65094745 1522984
0.63532728 0.2266109 0.65320683 5797736
0.64376634 0.2260921 0.6544494 5931630
0.65096629 0.22818729 0.65380174 5204833
0.62631494 0.23545979 0.65288615 1986612
0.63480055 0.23507302 0.6553477 2449984
0.64481246 0.23535539 0.65641987 4684128
0.65429235 0.2355736 0.65647805 8031637
0.66268051 0.23804159 0.65558422 1978717
0.61762387 0.24646346 0.65196383 1788208
0.62389481 0.24453433 0.65433007 2252093
0.63440472 0.24510242 0.65581119 2450243
0.64486516 0.24500385 0.65684676 2316617
0.65515798 0.24491636 0.65723026 3232608
0.66404063 0.24548465 0.65784216 5332613
0.67189443 0.24694772 0.65586889 4740210
0.60852253 0.25863191 0.65136778 1520446
0.61517203 0.2552298 0.65336019 1983560
0.6252594 0.2549867 0.65489668 2047580
0.63483566 0.25500178 0.65558928 1847395
0.64575684 0.25514346 0.65610427 1846630
0.65550441 0.25510609 0.65679234 1846375
0.6641556 0.25474536 0.65714818 2175335
0.67044497 0.25202087 0.65694225 6845326
0.59969497 0.26866764 0.65005624 1386307
0.60579187 0.26561332 0.65270877 1582679
0.6154713 0.26486218 0.65438932 2635628
0.62529266 0.2649588 0.65451336 2701422
0.63498151 0.26502526 0.65495527 1846374
0.64533079 0.26534152 0.65572476 1780837
0.65525764 0.26495582 0.65615129 2306924
0.66244096 0.26321834 0.65607488 4674681
0.59660888 0.27547765 0.65242594 1451345
0.60424429 0.27485842 0.654562 2109286
0.61532605 0.2747691 0.65474814 6253191
0.62523907 0.27493504 0.6547491 8226195
0.63479483 0.27506578 0.65535522 3424881
0.64508343 0.27511439 0.65659446 1780837
0.65386438 0.27495834 0.65736866 6648209
0.58751082 0.28671873 0.65240568 1385548
0.59472436 0.28446108 0.65450621 1846368
0.60524374 0.28498235 0.65530652 6318983
0.61492664 0.28478682 0.65522999 7963281
0.62500733 0.28517506 0.6555329 6713480
0.63488626 0.28511214 0.65635264 2833004
0.64429724 0.28448504 0.65781093 4477309
0.65152699 0.28244719 0.65861315 10265515
0.57849377 0.29772335 0.65166259 1253954
0.58461499 0.29457501 0.65422654 1780056
0.59528309 0.29528752 0.65519494 5595522
0.60459411 0.29498655 0.6552968 7239820
0.61460698 0.29494092 0.65578622 7897488
0.62496835 0.294981 0.6564759 2898798
0.63503128 0.29474288 0.65710384 3293554
0.64239937 0.29428741 0.65660799 6976133
0.56938124 0.30927172 0.65152818 1187650
0.57498062 0.3052389 0.65403634 1516623
0.58436787 0.30473763 0.65627873 3885686
0.59502536 0.30494303 0.65589499 8226195
0.6052987 0.30509657 0.65647173 7831438
0.61541826 0.30507514 0.65709049 2898798
0.62504524 0.30483028 0.65728623 2570352
0.63356823 0.30442855 0.65582949 6845325
0.5679909 0.31516051 0.65196359 1385034
0.57421118 0.31525797 0.6556232 1846112
0.5843333 0.31506416 0.65614092 7371150
0.59483963 0.31487188 0.65612537 7634060
0.6047985 0.31512618 0.65709394 4477304
0.61490256 0.31476772 0.65789336 2044009
0.62431282 0.31368923 0.65734255 6779535
0.56777841 0.32268122 0.65130025 1385038
0.57467568 0.32521003 0.65402859 1582937
0.5850836 0.32515779 0.65536815 3490929
0.59500325 0.32497633 0.65592152 5529728
0.60498178 0.32508191 0.65659487 1912166
0.61473465 0.32450333 0.65735894 4609152
0.57766759 0.33256218 0.65206683 1318985
0.58518118 0.33472359 0.65442002 1582939
0.59509182 0.33504531 0.65581095 1846630
0.60530216 0.33465707 0.65628743 3359348
0.61317366 0.33195257 0.65646368 9871022
0.58736366 0.34142506 0.65183699 1252935
0.59571201 0.34405914 0.65411478 1977178
0.60238147 0.34273368 0.65568006 3885169
0.59724826 0.26577184 0.66862744 2182478
0.57696193 0.34391198 0.66564542 3885169
0.58244562 0.34934974 0.66235906 1522984
0.63470137 0.23420361 0.67323375 4082808
