# .PCD v0.7 - Point Cloud Data file format
VERSION 0.7
FIELDS x y z rgb
SIZE 4 4 4 4
TYPE F F F U
COUNT 1 1 1 1
WIDTH 605
HEIGHT 1
VIEWPOINT 0 0 0 1 0 0 0
POINTS 605
DATA ascii
0.63757271 -0.31001142 0.62338388 2040933
0.62714648 -0.29550707 0.62272632 2369629
0.61658323 -0.28434187 0.62720227 2106725
0.62093496 -0.2899853 0.62904143 2040934
0.60750169 -0.27294156 0.62706715 2172260
0.61276507 -0.27900529 0.62551147 2303841
0.59899479 -0.26189956 0.62543774 2435682
0.6030966 -0.26705176 0.62678331 2172515
0.59376198 -0.25484863 0.62632114 3948392
0.58598292 -0.24477847 0.6264953 5132396
0.5767107 -0.23333308 0.62664461 6053231
0.58105046 -0.23850314 0.62519109 5592937
0.56625336 -0.22313745 0.62767148 6118755
0.57205987 -0.22709653 0.62548429 6184557
0.55638349 -0.21266954 0.62464499 5526893
0.56230396 -0.21552949 0.6272859 6448244
0.55406201 -0.20482284 0.62537181 2829914
0.54680663 -0.19444884 0.62499106 2040663
0.55109102 -0.19855367 0.62793881 2106190
0.539437 -0.18130821 0.62363476 3805472
0.54204392 -0.18629855 0.62532926 3085106
0.53603214 -0.17483412 0.62532306 3936804
0.53732622 -0.16850922 0.62378019 1382209
0.54507828 -0.16409978 0.62481022 1448522
0.55184269 -0.16120887 0.62695146 2040937
0.54961997 -0.15901549 0.62100005 987446
0.55583978 -0.15731815 0.6236881 1514062
0.56379408 -0.15433124 0.62547153 1777495
0.57007325 -0.15090495 0.62886947 2435418
0.62952435 -0.3223955 0.63448894 2040934
0.62883246 -0.30110896 0.63638961 2106728
0.63192403 -0.30377123 0.63685501 2501483
0.62469625 -0.29513842 0.63516021 2040934
0.61746943 -0.28377724 0.63460308 2040934
0.62096906 -0.28891802 0.63581121 2040934
0.60823298 -0.27197161 0.63357544 2040934
0.61231035 -0.27660596 0.63534886 2040934
0.59912717 -0.26140153 0.63050091 2172262
0.60365534 -0.26557943 0.63535351 2632808
0.58979344 -0.25730479 0.63823003 5527154
0.5955742 -0.25543892 0.63505906 6974073
0.58689529 -0.24432983 0.63509446 8224126
0.59086239 -0.24921633 0.63567036 8355711
0.57736683 -0.23326801 0.63484323 8224126
0.5819391 -0.2379666 0.6350165 8158334
0.55471641 -0.22637962 0.63989383 5263981
0.56780493 -0.22204879 0.63546145 8289918
0.57206416 -0.22711584 0.63444114 8224126
0.55896354 -0.21091919 0.63435113 8092542
0.56318319 -0.21587753 0.63473278 8223869
0.55444092 -0.20480742 0.63532549 6711160
0.5476203 -0.19439723 0.634938 2106470
0.55073541 -0.19881026 0.63792235 3619436
0.56231987 -0.19451991 0.63042653 2236962
0.50485677 -0.1800364 0.63468367 2894892
0.52123237 -0.18563445 0.63095886 2236962
0.53933644 -0.18049368 0.63145214 3607594
0.54218662 -0.18527615 0.63513947 2171489
0.53724235 -0.1745726 0.6352669 3280949
0.54010814 -0.1793018 0.63999945 2106470
0.53823179 -0.16884243 0.635786 2106211
0.54487878 -0.16533177 0.635346 2040934
0.55295879 -0.16137436 0.63438088 2040934
0.5579775 -0.15878737 0.63433206 2040934
0.56529808 -0.15458034 0.63496137 2040934
0.57170808 -0.15093814 0.63683069 2369633
0.62936491 -0.30091327 0.64717758 2238049
0.63187003 -0.30444697 0.64952612 2566740
0.625485 -0.29448694 0.6451441 2040935
0.61826652 -0.28247324 0.64451444 2040934
0.62141287 -0.28729329 0.6455096 2040934
0.6091646 -0.27057669 0.64228272 2106726
0.61379296 -0.27586499 0.64489436 2040934
0.60498321 -0.2652007 0.6451323 4079982
0.59616148 -0.25421289 0.64450336 8289918
0.60024303 -0.25915796 0.64669538 8158334
0.58758241 -0.2432192 0.64469713 8223868
0.5916329 -0.24826282 0.64550537 8289917
0.57818019 -0.23211992 0.64536703 8224124
0.5825249 -0.23700476 0.64537489 8223868
0.55959809 -0.22037022 0.64769143 4929839
0.56889766 -0.22221893 0.64410418 8355711
0.57325429 -0.22679923 0.64498585 8355454
0.55932254 -0.21038914 0.64476246 8355711
0.56352383 -0.2155932 0.64512211 8355711
0.55545372 -0.2047956 0.64460337 8092542
0.54775178 -0.19326843 0.64522058 2106726
0.55116689 -0.19837131 0.64422655 4606320
0.57553643 -0.19539756 0.64303249 2238310
0.54312593 -0.18495555 0.64498109 2040934
0.53818798 -0.17392984 0.64474094 2106211
0.54051411 -0.17900787 0.6465041 2040934
0.53801179 -0.16898611 0.64465207 2040677
0.54462391 -0.16569309 0.64416087 2040934
0.55324811 -0.16136903 0.64355242 2040934
0.55865544 -0.15869637 0.64269191 2040934
0.56465405 -0.15574379 0.64301509 2106726
0.57278788 -0.15155503 0.64219797 3684965
0.63516718 -0.3034859 0.65305144 2172524
0.64070004 -0.3059274 0.65637898 1645910
0.6277172 -0.29432723 0.65157855 2238320
0.63218594 -0.29796642 0.65342444 2304114
0.60566354 -0.28497505 0.65075725 2040934
0.61930168 -0.28171894 0.65522569 2040934
0.62256408 -0.28654221 0.6532436 2106731
0.61435252 -0.27481708 0.65521955 2040934
0.58423221 -0.26545903 0.65725106 5921909
0.60546589 -0.26399708 0.65510428 5987443
0.6103003 -0.26942298 0.65686834 2238054
0.59704983 -0.25369108 0.65478122 6907235
0.60092992 -0.2581304 0.65647584 6906720
0.58823258 -0.24251424 0.65458626 6183253
0.59193462 -0.24707799 0.65518296 6380890
0.55888832 -0.23181681 0.65410244 7763579
0.57877052 -0.2310206 0.6539641 6051152
0.58336711 -0.23643692 0.65523988 5853517
0.59928668 -0.23983201 0.65252608 6775647
0.56848222 -0.22022568 0.65003693 8355711
0.57388747 -0.22515829 0.65489638 6182738
0.55973792 -0.21019591 0.65094113 8355711
0.56538832 -0.21538922 0.65572309 6973027
0.55636066 -0.20516868 0.65503937 7566203
0.54811901 -0.19313501 0.65572339 2040934
0.55118585 -0.19805011 0.65575421 2698856
0.54399604 -0.18536706 0.65465814 2040934
0.53829598 -0.17368369 0.65514904 2040933
0.54076582 -0.17885321 0.65396267 2040934
0.5381487 -0.16740179 0.65646815 2040934
0.56100404 -0.1612874 0.65069228 2040934
0.54717165 -0.15756783 0.6585362 2040934
0.55721211 -0.15303093 0.65831345 2106726
0.5653019 -0.15146069 0.65334111 3882605
0.570732 -0.1598554 0.65356761 2040934
0.56737089 -0.14881137 0.65815163 4671853
0.57235199 -0.14819555 0.65562576 5723481
0.63561523 -0.30262747 0.66642141 1777497
0.64538032 -0.30743477 0.66968369 2238056
0.62641799 -0.29288048 0.66662538 2040934
0.63153821 -0.29828408 0.66697377 2040934
0.61923605 -0.28126562 0.6644817 2040934
0.62205142 -0.28622523 0.6656183 2040934
0.61575913 -0.2751905 0.66511214 2369638
0.60715896 -0.26404107 0.66480285 7500151
0.61120689 -0.26891258 0.66493571 5132402
0.59752339 -0.25218141 0.66503882 4732716
0.60244989 -0.25731546 0.66563535 5391676
0.5885675 -0.24111581 0.66394109 4336672
0.59271038 -0.24611335 0.66513717 4402465
0.60293567 -0.24054997 0.66892928 7434093
0.57911384 -0.2303281 0.6601404 4469801
0.58395225 -0.23509109 0.66532767 4270364
0.57559019 -0.2249756 0.66499341 4402722
0.56624198 -0.21471378 0.66509938 5194299
0.57132173 -0.21921672 0.66747952 4204314
0.55694294 -0.20388217 0.66494292 7960697
0.5614717 -0.20869565 0.66585821 5655621
0.54864287 -0.19211751 0.66447139 2106470
0.55198914 -0.19732934 0.66481704 4737648
0.5441888 -0.18477643 0.66489559 2040934
0.53859109 -0.17324769 0.66447806 2040934
0.5410226 -0.17725354 0.66708446 2040934
0.53846139 -0.1654682 0.66485256 2040934
0.54135227 -0.16094598 0.66510302 2040934
0.54605079 -0.15779074 0.66567463 2040934
0.55445081 -0.1529538 0.66592902 2040934
0.5651204 -0.15020792 0.66677266 2303851
0.56519318 -0.14945233 0.66520196 2567018
0.57461846 -0.14849296 0.66522467 6645109
0.58079118 -0.14893305 0.66847849 5986648
0.63673103 -0.30284452 0.67519379 2040403
0.62711346 -0.29312479 0.67550933 2040934
0.63169205 -0.29803187 0.67452461 2040934
0.61935604 -0.28028694 0.67467171 2040934
0.62220848 -0.28525215 0.67486179 2040934
0.61627334 -0.27476227 0.67529166 4277359
0.60716802 -0.26301998 0.6747483 8092538
0.61207473 -0.26834098 0.67553133 8289918
0.63103414 -0.26690927 0.67683196 2040934
0.59887379 -0.25226438 0.67460907 4863530
0.60273731 -0.25694141 0.67535436 6972254
0.58892894 -0.24006806 0.67129797 4270107
0.59339148 -0.24525139 0.6748423 4336156
0.58525336 -0.23465057 0.67493594 4270107
0.60543942 -0.23685786 0.67695987 7302250
0.57710576 -0.22426456 0.67468691 4270106
0.58135867 -0.22924006 0.67680669 4270107
0.5668118 -0.21236315 0.67442954 4468000
0.5723868 -0.21737583 0.67572451 4270363
0.55785054 -0.20242423 0.67565024 8224125
0.56240606 -0.20758881 0.6746074 5852485
0.54893321 -0.19205327 0.67523885 2106726
0.55276477 -0.19685552 0.67534852 6053494
0.54583693 -0.18520695 0.67500764 2040934
0.53984916 -0.17051572 0.67626637 2040934
0.54197836 -0.17570411 0.67505747 2040934
0.53846735 -0.16553286 0.67501122 2040934
0.54123271 -0.16097549 0.67414844 2040934
0.54633319 -0.15764634 0.67554355 2040934
0.55489272 -0.15320103 0.67501509 2040934
0.56131047 -0.15052129 0.67645222 2106470
0.56536436 -0.14880125 0.67768401 2369640
0.57724488 -0.14982574 0.67035049 7500673
0.62371582 -0.3095462 0.6847474 1974881
0.63667673 -0.30067191 0.68162799 1974881
0.64089316 -0.30335724 0.68197948 1711438
0.62672669 -0.29246882 0.68527412 2040934
0.63215452 -0.29723728 0.68418056 2106730
0.61984313 -0.28075808 0.68430185 2040934
0.62275982 -0.28584772 0.68544465 2040934
0.61691415 -0.27506199 0.68547994 4145774
0.60806656 -0.26215601 0.68623209 8355711
0.61194724 -0.26718539 0.68458992 8355711
0.64064127 -0.26927564 0.68485183 2040934
0.59920949 -0.25114051 0.68441057 8092281
0.60315555 -0.25605237 0.68479091 8289918
0.59444582 -0.24505788 0.68504304 7499114
0.5867551 -0.2350187 0.68500268 6840411
0.57774967 -0.22314149 0.68470764 6708825
0.58279473 -0.22761221 0.68501782 7038048
0.56815529 -0.21166301 0.68400162 7499371
0.5727061 -0.21657848 0.68530911 7499114
0.55887842 -0.2014811 0.68523312 8289919
0.56337744 -0.20636013 0.68497676 8158075
0.54966307 -0.19113104 0.68256807 2106470
0.55332202 -0.19536495 0.6853292 4737648
0.54618186 -0.18506376 0.68617469 2040934
0.53901386 -0.17288674 0.68667746 2040934
0.54134834 -0.1767747 0.68800014 2040935
0.55375224 -0.17740302 0.68389249 2961769
0.5380795 -0.16526115 0.68555635 2040934
0.54090536 -0.16055615 0.68538392 2040934
0.54526895 -0.15755916 0.68606114 2040934
0.55500752 -0.1525099 0.68436211 2040934
0.56184095 -0.1547398 0.68253779 4211567
0.55965185 -0.14969094 0.68877649 2040934
0.56554395 -0.14864028 0.68511999 2106470
0.57391751 -0.14701021 0.68478161 2698595
0.62044746 -0.31255224 0.69866651 3562618
0.60421282 -0.3013995 0.69215345 1981293
0.64072412 -0.30365342 0.69472277 2566731
0.6144278 -0.29184002 0.69357342 1908813
0.62766838 -0.29213089 0.69479156 2040934
0.63262641 -0.29732063 0.6961813 2040932
0.62358367 -0.28504407 0.69509071 2040934
0.59954649 -0.27410847 0.69784433 7894644
0.60278678 -0.2746971 0.69009471 5206399
0.61750019 -0.27480304 0.69443464 3159146
0.62054372 -0.27965951 0.69727695 2040934
0.60888106 -0.2618098 0.69530928 8355711
0.61252981 -0.26680553 0.69520324 8224126
0.59194016 -0.25975427 0.69773126 1987962
0.60361707 -0.25506616 0.69500834 8355711
0.59573734 -0.24487972 0.69530678 8355711
0.5871526 -0.23395097 0.69472516 8355711
0.59117281 -0.23904409 0.6952247 8355711
0.57841086 -0.22272342 0.69411129 8158846
0.58199525 -0.22728157 0.69525194 8355711
0.56908756 -0.21089728 0.69516617 7369083
0.57324469 -0.21617386 0.69523191 8158590
0.56413007 -0.20505933 0.69491029 6842745
0.55495924 -0.19486926 0.69483644 2895977
0.5473848 -0.1845627 0.69495225 2040935
0.55068088 -0.18951283 0.69642097 2040934
0.56879836 -0.18690251 0.69641745 2969718
0.53984034 -0.17090115 0.69411612 2040934
0.54284567 -0.17590058 0.6932596 2040936
0.53906411 -0.1655003 0.69435698 2040934
0.54109931 -0.16302446 0.69401562 2040934
0.54612428 -0.1568802 0.69449139 2040934
0.55347085 -0.15171362 0.69474351 2040934
0.55906367 -0.14989477 0.69829583 2040934
0.56510413 -0.14823313 0.69524682 2040934
0.57391959 -0.14615111 0.69484252 2106466
0.63705981 -0.30085874 0.70243442 2040672
0.62846923 -0.29138047 0.70373553 2041447
0.63341236 -0.29645675 0.70500708 1975909
0.6244064 -0.285106 0.70528173 2042728
0.6176039 -0.27394339 0.70489109 2635115
0.62063253 -0.27901584 0.70456851 2042729
0.60948378 -0.26086128 0.70363063 8355711
0.61274785 -0.26577485 0.70538211 6714493
0.60523009 -0.25491193 0.70513409 7108991
0.5966565 -0.24376428 0.70500594 7305855
0.60052896 -0.24899304 0.70406091 7765119
0.58802646 -0.23306055 0.7046051 7502719
0.59221357 -0.23808739 0.7051273 7371647
0.57830143 -0.22128378 0.70399207 7961983
0.58254182 -0.22623904 0.70517749 7502719
0.59363872 -0.22367881 0.70376539 3554736
0.56973279 -0.21065664 0.70368671 2501480
0.57389754 -0.21554114 0.70546997 5923704
0.56551534 -0.20504089 0.70525557 2305385
0.55650228 -0.1941025 0.70459414 2041446
0.56279296 -0.19773136 0.70651913 2041447
0.54815376 -0.18268584 0.704072 2040934
0.55190355 -0.18693165 0.7061879 2041190
0.53745037 -0.17285092 0.70177442 2042728
0.54389644 -0.17530087 0.70567727 2040934
0.53951186 -0.1673895 0.70254248 2040934
0.54081279 -0.16388844 0.70572972 2040934
0.5445981 -0.15612864 0.70537245 2040934
0.55519146 -0.1514308 0.70496112 2040934
0.56532675 -0.1485503 0.70415217 2040934
0.57479888 -0.14599147 0.7044577 2040934
0.58053488 -0.14521816 0.70909542 2040934
0.59192169 -0.14509162 0.70598924 9272432
0.63803089 -0.30038118 0.71237302 2237241
0.62882179 -0.29028261 0.71019387 1985141
0.63383085 -0.2949675 0.71513176 1914982
0.62583333 -0.28485611 0.71488124 1990013
0.61842626 -0.27340823 0.71432251 1990269
0.62153256 -0.27816877 0.71573561 1990782
0.61345762 -0.26518011 0.71510893 2122366
0.60653287 -0.25502482 0.71498066 2188159
0.61003339 -0.25985646 0.71639633 1991295
0.59736675 -0.24281575 0.71500093 2319487
0.60151792 -0.24807259 0.71470553 2319487
0.58862311 -0.23194344 0.71472132 2450559
0.59256899 -0.23680896 0.71512091 2253951
0.57890308 -0.22036514 0.71224618 3041151
0.58328611 -0.22525696 0.71531385 2319487
0.57484496 -0.21491715 0.71492338 2187389
0.5667299 -0.20485654 0.7151441 1989500
0.57132703 -0.20976274 0.7188158 1991295
0.55716455 -0.19332998 0.71486276 1988731
0.56140292 -0.19840558 0.7150504 1989243
0.54926395 -0.18164104 0.7158401 1987705
0.5523333 -0.18665828 0.7151773 1988218
0.5260675 -0.17841606 0.7100262 2040935
0.54625839 -0.17464288 0.71282023 1983859
0.54226154 -0.16433573 0.71449929 2044268
0.5463869 -0.1562096 0.71402806 2106729
0.55182064 -0.15191451 0.71639311 2106473
0.55632603 -0.14926089 0.71592844 2040935
0.56523585 -0.14721306 0.71525824 2040934
0.57517767 -0.14614548 0.71479243 2040934
0.58163184 -0.14553399 0.71508044 2435161
0.5835135 -0.13028216 0.71251994 5986648
0.63512927 -0.29458925 0.72505987 1848162
0.6412468 -0.29876703 0.72931802 1316410
0.62665135 -0.28367573 0.72540146 1991295
0.63072258 -0.2890473 0.72616106 1990782
0.60965878 -0.279533 0.72226775 1985654
0.61910349 -0.2722064 0.72437096 1991295
0.62224108 -0.27705258 0.72494364 1991295
0.61481661 -0.26534232 0.72490752 1991295
0.60720187 -0.25439581 0.72458017 1991295
0.61097568 -0.25931865 0.72729927 1991295
0.58015978 -0.24555868 0.72799665 2040934
0.59833777 -0.24253114 0.72516972 1991039
0.60218298 -0.24742217 0.72490728 1991039
0.58925098 -0.23123564 0.72426796 1991295
0.59327608 -0.23612182 0.72524726 1991295
0.58438659 -0.22488956 0.7250061 1991038
0.57599175 -0.21436465 0.72466433 1991295
0.58039033 -0.21936284 0.72731322 1991295
0.56699586 -0.20316499 0.72425807 1991295
0.57123625 -0.20796141 0.7263943 1991295
0.55810332 -0.19250613 0.72466183 1991295
0.56229752 -0.19730352 0.72518867 1991295
0.54887062 -0.1817472 0.7238431 1991295
0.55296361 -0.18635744 0.72562122 1991295
0.54505277 -0.17458847 0.72531354 1991295
0.54366887 -0.16569912 0.72447455 2053756
0.54596537 -0.15529871 0.72609413 2042729
0.55337912 -0.15072069 0.72002709 2106728
0.55437893 -0.14845771 0.72533911 2040934
0.56634641 -0.14652206 0.72460568 2040934
0.57732648 -0.14566052 0.72610968 2040934
0.63632256 -0.29267043 0.7345345 1977962
0.64211398 -0.29760623 0.73391104 1579848
0.62769955 -0.2838231 0.73444158 1984885
0.63212138 -0.28791392 0.73607332 2047345
0.61868113 -0.27301672 0.7336036 1985141
0.62287509 -0.27609634 0.73527378 1983090
0.61531842 -0.2647737 0.73483688 1983859
0.60727167 -0.25349513 0.73487568 1983859
0.6109286 -0.25829935 0.73559046 1982321
0.59847677 -0.24207498 0.73515975 1983603
0.60230744 -0.24720125 0.73515397 1983347
0.57904696 -0.23614283 0.73909247 2369910
0.58963948 -0.23030502 0.73328769 1986423
0.5935117 -0.23534763 0.7348187 1984116
0.58586609 -0.22506019 0.73525763 1983859
0.6671083 -0.22654843 0.73866194 3686023
0.57680106 -0.21370208 0.734833 1985141
0.58119214 -0.21777633 0.73480511 2444155
0.56743711 -0.20246778 0.73547637 2444406
0.57195067 -0.20755605 0.7356469 1983859
0.55870003 -0.19150138 0.73465782 1986936
0.56288493 -0.19648524 0.73536772 1985141
0.54859662 -0.18035451 0.73064089 1991295
0.55342364 -0.1851327 0.73526424 1985911
0.53336692 -0.17651588 0.73878473 2435700
0.54767001 -0.17506061 0.73540449 2052987
0.55066007 -0.17881548 0.73911619 2173807
0.54495472 -0.16519749 0.7365548 2119039
0.54657638 -0.15597068 0.73400831 2042217
0.55090863 -0.15100983 0.73390633 2040934
0.55468947 -0.1474954 0.7354672 2040934
0.56309175 -0.14540638 0.73566931 2040934
0.57414871 -0.14505799 0.73491985 2172262
0.58092797 -0.14452988 0.73845577 2895443
0.64505631 -0.31215358 0.74696463 3554994
0.6378901 -0.29193228 0.74473381 1909346
0.64125401 -0.29590249 0.74448615 1316676
0.61235106 -0.2831887 0.74384832 3489197
0.62907887 -0.28184173 0.74443239 2040934
0.63330519 -0.28648835 0.74534947 2040934
0.64123321 -0.28592288 0.74627715 2632803
0.62373048 -0.27488938 0.74502379 2040934
0.67344803 -0.27476236 0.74882746 3027832
0.61648428 -0.2649225 0.7446447 2040934
0.62053835 -0.26938224 0.74969137 2040934
0.66876936 -0.26468557 0.74949694 3752110
0.67042273 -0.26375407 0.74790245 3751563
0.60742801 -0.25316513 0.74573821 2040934
0.61127263 -0.2580145 0.74451303 2040934
0.66717339 -0.25583431 0.74797767 3686288
0.59848875 -0.24334154 0.74495417 2108013
0.6025719 -0.24714108 0.74539393 2040934
0.6581921 -0.24252522 0.74773526 3357072
0.66288239 -0.24836983 0.74754685 3554178
0.58646721 -0.23481067 0.74393791 4284046
0.59359795 -0.23501374 0.74518085 2040934
0.64819771 -0.23240294 0.74901414 3357598
0.65307385 -0.23473166 0.7464633 3488914
0.58628201 -0.22484584 0.74542153 2040934
0.59020329 -0.22963153 0.74890655 2040934
0.64578706 -0.22541842 0.74683219 3488907
0.65004873 -0.22869433 0.74486524 3620482
0.57769388 -0.21324371 0.74504185 2040935
0.58156466 -0.21805996 0.74609774 2040934
0.63576454 -0.21527989 0.7493003 3686311
0.64108765 -0.21837023 0.74696404 3686023
0.65539551 -0.21891539 0.74203545 2435705
0.56879604 -0.20199935 0.74416882 2040934
0.57295519 -0.20677647 0.74606931 2040935
0.62728667 -0.20118481 0.74727851 3948675
0.63269925 -0.20633203 0.74613458 3817361
0.55944824 -0.19076453 0.7434389 2040934
0.56378281 -0.19527322 0.74568659 2040935
0.61810505 -0.19109716 0.74994081 3686568
0.62423408 -0.19587958 0.74699551 4014726
0.55553126 -0.18472461 0.74499452 2040936
0.56004101 -0.18828374 0.74966103 2106730
0.61403835 -0.18417902 0.74917269 3620499
0.5282864 -0.17660293 0.74123299 2830185
0.54889286 -0.17322424 0.74691623 2106730
0.5514167 -0.17653957 0.7449013 2106730
0.606727 -0.17356411 0.74867505 3752092
0.61028838 -0.17882693 0.74901026 3818153
0.54802018 -0.16449012 0.74314386 2041448
0.55008805 -0.16957441 0.74290061 2106729
0.59940666 -0.16307421 0.74805236 3686026
0.60186297 -0.16606607 0.74807853 3751818
0.54715121 -0.15490676 0.74530858 2106729
0.55052572 -0.15051225 0.74005437 2040934
0.59743041 -0.15983282 0.74675125 3619427
0.54532284 -0.14828441 0.74501896 2106725
0.55509055 -0.14828902 0.74380958 2172524
0.56471485 -0.1462653 0.74358094 2172524
0.57521051 -0.1450339 0.74525255 2304113
0.58123183 -0.14845413 0.74966288 2764938
0.5787707 -0.13876715 0.74044031 2895443
0.63927889 -0.29109126 0.75222337 2106730
0.64513367 -0.29341704 0.75389433 1909091
0.65510625 -0.29418653 0.75694221 2303839
0.66149205 -0.29326758 0.75915837 1711695
0.63520551 -0.28395599 0.75488299 2435962
0.64446712 -0.28511116 0.75786889 3357093
0.65488088 -0.28506181 0.75846648 2830719
0.6638248 -0.28330323 0.75706619 3093898
0.62660891 -0.27385193 0.75497663 2238319
0.63443506 -0.27653977 0.75923657 3225502
0.64599568 -0.27584115 0.75926614 3489198
0.65569502 -0.27481636 0.75759619 3620788
0.66383034 -0.27501914 0.75531334 3620787
0.6708129 -0.27632651 0.75135225 3093896
0.61777115 -0.2634567 0.75333089 2369910
0.62282151 -0.26575252 0.7570982 2567293
0.64775151 -0.26453647 0.75921136 3554994
0.65519828 -0.26510292 0.75741345 3620788
0.66307515 -0.2648924 0.75385237 3620787
0.60851371 -0.25265321 0.75219452 2304114
0.61470491 -0.25579479 0.75576562 2633089
0.62395978 -0.25567865 0.75935256 2962322
0.63564432 -0.25247943 0.75885671 3423403
0.64480776 -0.25469634 0.75821269 3554992
0.65486187 -0.25495631 0.75557226 3554993
0.6634838 -0.25653321 0.75117195 3620526
0.59882647 -0.24086614 0.75134802 2106472
0.60563207 -0.24495631 0.75567782 2567295
0.61433417 -0.24589647 0.75928938 3159964
0.62557429 -0.24456973 0.75923765 3489199
0.6352886 -0.24528126 0.75793964 3554735
0.64488733 -0.24475113 0.75588036 3554992
0.65348548 -0.24586792 0.75314063 3489197
0.59608251 -0.23400402 0.75519586 2369909
0.60270947 -0.23631096 0.75857317 3094169
0.61553305 -0.23425072 0.75910807 3554992
0.62484199 -0.23507355 0.75789714 3554991
0.63485926 -0.23536837 0.75593483 3554992
0.64382029 -0.23569113 0.75378352 3489198
0.6514675 -0.23770963 0.75035059 3357603
0.58759689 -0.22344398 0.75391507 2238062
0.59360659 -0.22568537 0.75829017 2896785
0.60679269 -0.22518897 0.75936669 3554992
0.61530119 -0.22503991 0.75777513 3554992
0.62477678 -0.22489846 0.75598162 3554992
0.6346963 -0.22541088 0.75363845 3554735
0.64159775 -0.22619724 0.7510373 3489194
0.57939541 -0.21169844 0.75227463 2106471
0.58489829 -0.21533418 0.75652367 2633090
0.59172833 -0.21793997 0.75974357 3291811
0.60496473 -0.21459484 0.75879115 3620787
0.61503172 -0.21526223 0.75633711 3620786
0.62467015 -0.21523826 0.75409228 3554993
0.63205731 -0.21654007 0.7515465 3620526
0.5695405 -0.20058648 0.75022197 2172266
0.57565916 -0.20425001 0.75515407 2369911
0.58405834 -0.20652501 0.75943679 3225761
0.59776199 -0.20324904 0.7594797 3620787
0.60491008 -0.20533733 0.75773817 3620787
0.61521941 -0.20481995 0.75483942 3620786
0.6238929 -0.20632878 0.7524637 3620785
0.56692523 -0.19409324 0.75463068 2304113
0.57244432 -0.19715098 0.75809252 2633346
0.59618974 -0.1944783 0.75890791 4344246
0.60519683 -0.19485036 0.7564739 3620787
0.61429578 -0.19575448 0.75368613 3620529
0.62112236 -0.19635473 0.75022864 3620777
0.5582695 -0.18289942 0.75341737 2106731
0.56252265 -0.18653347 0.75657409 2369909
0.58747458 -0.18384914 0.75960958 10324348
0.59476727 -0.18454401 0.75798851 9210550
0.60432547 -0.18562959 0.75509739 3620529
0.61214727 -0.18723066 0.75162059 3554734
0.54947639 -0.17199397 0.75053781 2369909
0.55474544 -0.17514214 0.75542331 2304114
0.57782155 -0.17241763 0.75949794 8084296
0.58517694 -0.17488974 0.75841224 7753786
0.59475791 -0.17518742 0.75619489 9999537
0.60351431 -0.17636976 0.75233209 3752366
0.54762918 -0.16434509 0.75340313 2369910
0.55312389 -0.1640916 0.75813025 2764935
0.565714 -0.16276838 0.7592634 9603207
0.57512295 -0.16478828 0.75824553 7557440
0.58471483 -0.16502424 0.75626421 8154498
0.59430343 -0.16602011 0.75376064 4080814
0.61681044 -0.16619095 0.75798768 8282965
0.54852504 -0.15586865 0.75194359 2369911
0.55444318 -0.15468381 0.75609577 2830718
0.56494695 -0.15522979 0.75749213 7236767
0.57517076 -0.15478805 0.75520563 10324351
0.58438677 -0.15610097 0.75350988 11711433
0.59278148 -0.15992977 0.75180584 3423145
0.55625814 -0.1480806 0.75454414 2304116
0.5649361 -0.1471699 0.75532585 3028111
0.57392401 -0.14723556 0.75250721 6777771
0.65991402 -0.28472376 0.76029742 2632803
0.66208792 -0.28653279 0.76046973 3488104
0.6350522 -0.27194265 0.76032078 3488940
0.64260608 -0.27156925 0.76024622 3554736
0.62741864 -0.26382086 0.76064694 3291811
0.63491088 -0.26509875 0.76105028 3423403
0.64237875 -0.26543561 0.76036853 3554994
0.66275001 -0.26986051 0.7620253 2567288
0.61700326 -0.25259826 0.76072568 2964630
0.6249795 -0.25526577 0.7606799 3357607
0.63408071 -0.25703099 0.76051897 3489198
0.65821105 -0.25873461 0.76750749 3620248
0.61481595 -0.2451791 0.76039612 3357607
0.62133574 -0.24905826 0.76021743 3554991
0.57963473 -0.23472494 0.76702082 1988987
0.60697174 -0.23406567 0.76036412 3291811
0.61132365 -0.23761111 0.76040989 3489197
0.59837747 -0.22313023 0.76023269 3357606
0.60313326 -0.22572656 0.76035714 3489196
0.58939195 -0.21034831 0.76000869 3423402
0.5958665 -0.21497433 0.76033628 3423403
0.56633455 -0.20115896 0.76364887 2830733
0.57888699 -0.20059656 0.76019925 3489196
0.58700234 -0.20308144 0.76016253 3423403
0.59339309 -0.20575179 0.7603274 3423404
0.57555932 -0.19383785 0.76117426 3357346
0.58504462 -0.19521503 0.76076847 5659831
0.59152466 -0.19714797 0.76033705 3752113
0.56645918 -0.18427856 0.76163679 2962578
0.57478774 -0.18512192 0.76159281 8093631
0.58320457 -0.18590149 0.76053953 12368056
0.55833423 -0.17300871 0.76115388 3685775
0.56489295 -0.17517932 0.76177776 9474749
0.57423329 -0.17571649 0.760948 11248805
0.58078444 -0.17963165 0.76036721 9272432
0.61869693 -0.17820576 0.76325369 7895735
0.54591417 -0.16184413 0.76444209 2054013
0.55684626 -0.1668575 0.76085705 6317483
0.56416017 -0.16702874 0.76072174 11841454
0.57064962 -0.16880192 0.76031864 9603201
0.66745615 -0.28560671 0.77157462 3423145
0.6356768 -0.25154802 0.77996516 3554994
0.65302199 -0.24297141 0.77513731 3489191
0.6086297 -0.20482421 0.77430326 3620780
0.61589831 -0.2022336 0.77999496 3620786
