# .PCD v0.7 - Point Cloud Data file format
VERSION 0.7
FIELDS x y z rgb
SIZE 4 4 4 4
TYPE F F F U
COUNT 1 1 1 1
WIDTH 341
HEIGHT 1
VIEWPOINT 0 0 0 1 0 0 0
POINTS 341
DATA ascii
0.7066738 -0.063422069 0.625238 8289916
0.71013325 -0.068181925 0.62695348 5395540
0.6980443 -0.052482124 0.62580854 8289657
0.70184177 -0.057227843 0.62426382 8289658
0.69330943 -0.045347985 0.62557846 8289657
0.68645984 -0.035081487 0.62498027 5982518
0.67804223 -0.022550566 0.62562662 4598286
0.68152881 -0.027711563 0.62608409 4664079
0.67288172 -0.015252624 0.62531435 4664079
0.69010925 -0.010891791 0.6269303 7823968
0.66576332 -0.0051674405 0.62543523 4532235
0.65782601 0.0064726383 0.62567765 4334598
0.66094244 0.0019557972 0.62614352 4400134
0.64903879 0.018442631 0.6264537 8289657
0.65296489 0.013246808 0.62481666 6575687
0.64495867 0.025448205 0.62491697 8223605
0.63885307 0.037873473 0.62768549 7956327
0.64141911 0.034255322 0.62367105 8157041
0.65007401 0.030712977 0.62451857 2302755
0.63875169 0.041728962 0.62505931 7894644
0.64408052 0.046829198 0.62551612 7565935
0.64959377 0.051346224 0.62716627 6645093
0.65549171 0.055892542 0.62593389 6184542
0.66467029 0.063126095 0.62716728 6381921
0.67168784 0.068654813 0.62877709 8289917
0.67624944 0.071311533 0.62630224 6974055
0.68056124 0.073874064 0.62687933 8289914
0.67134362 0.085819818 0.62504679 3355698
0.706824 -0.064541966 0.63487607 7691870
0.69814467 -0.052257445 0.63499445 7164754
0.70204002 -0.057790302 0.63547105 7557200
0.69321018 -0.044888511 0.63498819 6967118
0.68673867 -0.035283148 0.63491845 5383446
0.67783642 -0.02231423 0.63548553 5050368
0.68246883 -0.027331054 0.63458401 5050880
0.67272866 -0.014705539 0.63502711 5116160
0.66573977 -0.004735826 0.63480675 5116160
0.65780008 0.0068734912 0.63524622 5311744
0.66080058 0.0025064335 0.63506413 5246720
0.64911216 0.018991945 0.63427711 7157816
0.65283376 0.013832679 0.63539422 6166289
0.64520425 0.025318654 0.63477737 7090738
0.63863707 0.036908429 0.63520849 6625561
0.64093494 0.032638807 0.63532996 6891303
0.63788742 0.04116321 0.63487804 7690070
0.64426023 0.046670083 0.63485384 8092538
0.64958453 0.051178586 0.63534802 6579300
0.65490919 0.055497985 0.63473946 6381664
0.65624458 0.062874116 0.63085365 2763049
0.66556329 0.06341482 0.63559216 6447457
0.67289245 0.068779483 0.635553 8092538
0.68119282 0.064093776 0.63200176 6035737
0.67666423 0.07279402 0.63468736 8223096
0.68062574 0.073559113 0.6358586 8289146
0.70731944 -0.063786805 0.64505821 6359048
0.71116489 -0.066353165 0.64830834 6763829
0.69860131 -0.052471697 0.64479762 4325376
0.70236355 -0.057427358 0.64565521 5767168
0.69326776 -0.044797476 0.64534271 4849664
0.68661326 -0.035066832 0.64516521 5308416
0.67794347 -0.022539096 0.6455617 6160384
0.68167585 -0.027902275 0.64425111 6160384
0.66977948 -0.010973545 0.6457752 6225920
0.67290413 -0.015354802 0.64520997 6225920
0.66550207 -0.0048024305 0.64468133 6160384
0.65787953 0.0062184087 0.64514142 6225920
0.6610496 0.0016249092 0.64495653 6225920
0.64931196 0.01866487 0.6453473 6225920
0.6527527 0.013607192 0.64529049 6225920
0.64498049 0.025497697 0.64477378 6226177
0.63804221 0.036789916 0.64593172 6292484
0.64066768 0.032649107 0.64420605 6292484
0.6385147 0.041051686 0.6437639 7421759
0.64419627 0.0456855 0.6454699 7023660
0.64937276 0.051003534 0.64367455 6766142
0.65479267 0.055243056 0.64528346 6434093
0.66114515 0.059991453 0.64884973 6293512
0.63576376 0.063848972 0.64567792 6494232
0.66458279 0.062689617 0.64459133 6501171
0.67421454 0.068052761 0.6457094 6958124
0.67901224 0.071476303 0.64215195 7623250
0.68350059 0.072707534 0.64609843 6168865
0.70811588 -0.061241727 0.65537447 5439488
0.71306545 -0.065365411 0.65258682 7222582
0.69820327 -0.05202695 0.65506637 4915200
0.70352393 -0.057170149 0.65474111 4980736
0.69365674 -0.045048382 0.65470552 4587520
0.68628716 -0.034381505 0.6547997 6160384
0.69021094 -0.039916456 0.65776831 5898240
0.66350472 -0.024624791 0.65599906 4856067
0.67810643 -0.023439057 0.65509546 6225920
0.68142551 -0.027904043 0.65467012 6225920
0.66925663 -0.010764958 0.6543048 6225920
0.67299008 -0.01615837 0.65544802 6225920
0.66527516 -0.0050266809 0.65478504 6225920
0.6576637 0.0060779252 0.65485799 6225920
0.66105545 0.0010768824 0.6558187 6225920
0.64898717 0.018512875 0.6547392 6225920
0.65275872 0.013132578 0.65514565 6225920
0.64417005 0.025469236 0.65500271 6225920
0.63823336 0.035373297 0.65505236 6225920
0.64010495 0.031535596 0.65311289 6225920
0.64443099 0.044509564 0.65506607 6225920
0.65377837 0.05407032 0.65471148 6225920
0.66082126 0.059831459 0.65450209 6225920
0.63074571 0.060954481 0.65124524 6226177
0.66543114 0.062879458 0.6554895 6225920
0.67546678 0.067628935 0.65339053 6226434
0.68559837 0.072273031 0.65221548 5834503
0.70623523 -0.063448735 0.66717184 4915971
0.7144835 -0.068071693 0.66370589 6820370
0.69804263 -0.052326448 0.66527396 4718592
0.70130861 -0.0573764 0.66626102 4718592
0.69311118 -0.045106996 0.66512042 5308416
0.71133256 -0.041570745 0.66624188 8750210
0.68580729 -0.034704838 0.66531366 6225920
0.67768455 -0.0231211 0.66470218 6225920
0.68085426 -0.027645681 0.66518182 6225920
0.66904819 -0.010847675 0.66577464 6225920
0.6727376 -0.016119098 0.66487074 6225920
0.66510665 -0.0049684281 0.6649946 6225920
0.65739077 0.0063187936 0.66487622 6225920
0.66101784 0.0010340307 0.66474354 6225920
0.64856523 0.018662479 0.66493714 6225920
0.65240663 0.013322745 0.66525233 6225920
0.63916928 0.02405639 0.66774702 6423556
0.64390892 0.02596781 0.665672 6226177
0.66821074 0.023236465 0.66840559 7421759
0.63843364 0.036076073 0.66486752 6225920
0.640715 0.033153653 0.66791254 6291456
0.63892555 0.04087238 0.66624844 6225920
0.64460182 0.045624077 0.66379476 6225920
0.64961714 0.051392566 0.66708672 6225920
0.65470088 0.055367794 0.66463482 6225920
0.6603809 0.059596211 0.66285175 6225920
0.66535199 0.063184418 0.66515988 6225920
0.67248601 0.067811824 0.66514707 6225920
0.64344686 0.076449834 0.66595441 7039593
0.67766637 0.070657261 0.66472107 6225920
0.68120319 0.072511815 0.66610736 6030340
0.71598327 -0.08427766 0.67578238 7557198
0.69538659 -0.0670764 0.67486715 3158064
0.70792645 -0.063111082 0.67357153 4849664
0.71230173 -0.067020983 0.67524266 5120032
0.69808656 -0.052265834 0.67385566 4653056
0.70301479 -0.057718847 0.6741637 4587520
0.68979657 -0.04087463 0.67632234 6225920
0.6930511 -0.045427382 0.67484921 6160384
0.71341527 -0.042665832 0.67599106 7501229
0.6858322 -0.035166897 0.67502081 6225920
0.6776647 -0.023491357 0.67520487 6225920
0.68133587 -0.028759986 0.67583036 6225920
0.70051336 -0.02776067 0.67511564 3620521
0.66915286 -0.011293711 0.67464268 6225920
0.67275894 -0.016500065 0.67515397 6225920
0.66484898 -0.004971554 0.67472851 6225920
0.65723592 0.0062618894 0.675102 6225920
0.66072649 0.0011779306 0.67409545 6225920
0.64854509 0.018562783 0.67472261 6225920
0.65225238 0.013506991 0.67500013 6225920
0.64408064 0.025132921 0.67538214 6225920
0.6391753 0.036477037 0.67722297 6555142
0.64139086 0.036187772 0.67359382 6422785
0.63944411 0.0430617 0.67340326 6489349
0.64287376 0.045218766 0.67710179 6619136
0.64789551 0.050972115 0.67512637 6357249
0.65604055 0.056551091 0.67539603 6226434
0.66587156 0.063788794 0.67490262 6226177
0.67398274 0.068458155 0.67384279 6291970
0.64487565 0.0709932 0.67344731 6356992
0.67813665 0.070427217 0.67197078 6291456
0.68283099 0.071780816 0.67431611 6359048
0.70673943 -0.06325876 0.68633395 6636610
0.71189153 -0.067979977 0.68427098 5587008
0.68908602 -0.058329433 0.68778008 8088939
0.69846773 -0.053297307 0.68516606 6761516
0.70238173 -0.058058124 0.68570584 6174518
0.68927407 -0.040490765 0.68447995 6891046
0.69308048 -0.045940116 0.68511331 6958124
0.66605026 -0.031024538 0.68300498 6160384
0.68549854 -0.035130534 0.68458998 6629419
0.67729193 -0.023461482 0.68504769 3937080
0.6810593 -0.028842255 0.68488914 4856114
0.66866004 -0.011053051 0.68425113 4133427
0.67232859 -0.016336102 0.6852299 3675453
0.68972898 -0.018394832 0.68790698 10987431
0.66445613 -0.0050096968 0.68513417 3610433
0.65738833 0.0056817411 0.68484652 7358022
0.66081762 0.00046497351 0.68417096 5383738
0.64857244 0.018587848 0.68486071 7491148
0.65219045 0.013444226 0.6846891 7424328
0.64361894 0.025559969 0.68537688 7624277
0.66369337 0.023049453 0.6830073 10921381
0.63882416 0.033963557 0.68536526 7757147
0.64130557 0.036707621 0.68488425 7554115
0.64590937 0.045466829 0.68414479 7222323
0.64750862 0.052033823 0.68298721 6691611
0.65478885 0.055170517 0.68535268 6440518
0.66569972 0.06347543 0.6852507 6506825
0.67278939 0.068684906 0.68679774 7758177
0.67677879 0.0715473 0.68864477 7823711
0.66411817 0.081640273 0.68248886 6381921
0.70771343 -0.062102232 0.69403738 8947331
0.71351171 -0.06613069 0.69602901 8355708
0.69796717 -0.052023817 0.6954428 8749953
0.70259434 -0.056794092 0.69537544 9144968
0.68913335 -0.040090822 0.69341254 8289658
0.69329447 -0.04545857 0.69541955 8618880
0.68580419 -0.034682702 0.69547081 8618626
0.69029546 -0.038998462 0.69968641 10000534
0.67760718 -0.023323325 0.69480139 2040934
0.68166894 -0.028139632 0.69680744 4277367
0.73572558 -0.027757378 0.69985425 13553360
0.66948378 -0.012289381 0.69327867 2040934
0.67305493 -0.015698086 0.696266 2040935
0.66577303 -0.0053950096 0.69557405 2304106
0.65783244 0.0066060433 0.69483042 7697780
0.66145271 0.0017818016 0.69642878 6711156
0.63554525 0.015739877 0.69971061 6225920
0.64910358 0.018890364 0.69347972 7566193
0.65292197 0.014292167 0.69576859 7368558
0.64548701 0.025386024 0.69492972 7171436
0.63908726 0.036903493 0.69313622 7763317
0.6415081 0.034237202 0.69648522 6974057
0.64530021 0.045333348 0.69568163 8223865
0.65069288 0.049904339 0.69880456 7236972
0.64939743 0.050847501 0.69274688 7171180
0.6553899 0.054859988 0.69555104 6447713
0.66137439 0.058704939 0.69734234 6381921
0.66595721 0.062666476 0.69468367 6645093
0.67487532 0.067311734 0.69520736 8750468
0.68282688 0.06973289 0.6973626 9605775
0.6781435 0.071516469 0.69098198 9737105
0.68463147 0.071962871 0.694938 9868947
0.68560767 0.084563673 0.69475633 11447724
0.70916498 -0.060148701 0.70072305 8750468
0.71483338 -0.062255405 0.70310712 8750210
0.7220121 -0.061353285 0.70391893 10065297
0.69950616 -0.05167805 0.70036006 9802898
0.70560157 -0.054165337 0.70357627 9934740
0.71475893 -0.054756951 0.7069338 12303290
0.72474474 -0.053880457 0.70649171 11052967
0.7314142 -0.051354032 0.706478 8882055
0.69688874 -0.044629514 0.70197588 9934741
0.70536393 -0.044764325 0.70444924 12895168
0.7154277 -0.04521133 0.70573288 10855845
0.72513402 -0.045049846 0.70610094 10658466
0.73476678 -0.044251241 0.70640963 11381932
0.74424952 -0.042877641 0.70465457 12040117
0.7548399 -0.040992409 0.7019971 8882054
0.68841869 -0.032747064 0.70157743 8816266
0.69473135 -0.035408422 0.703327 12039860
0.70525384 -0.035303794 0.70498472 11645360
0.71576041 -0.034627408 0.70541239 10658466
0.72532552 -0.035007507 0.70609456 10790052
0.73537141 -0.035231501 0.7062974 13027012
0.7453981 -0.034639843 0.70656842 13684684
0.7540316 -0.03445949 0.70479822 11579052
0.67873269 -0.020865688 0.70072603 2435704
0.68520343 -0.024292026 0.70291913 5001627
0.6949482 -0.025286485 0.70524251 11514040
0.70529562 -0.025525708 0.70544839 10855847
0.71564233 -0.024886793 0.70552629 10790052
0.72563213 -0.025229622 0.70580423 12369082
0.73536044 -0.024655284 0.70646691 13684685
0.74472892 -0.025594035 0.70698094 13684685
0.75180703 -0.027344475 0.70641899 13027012
0.67670137 -0.014190598 0.70259136 2830731
0.68484128 -0.015232165 0.7052812 3225761
0.69474036 -0.014551002 0.70632321 4343979
0.70487332 -0.014838457 0.70615608 9013929
0.71525854 -0.01513562 0.70589632 11645104
0.72532505 -0.015412136 0.70609522 13816528
0.73426491 -0.01503921 0.70708221 13750735
0.7440961 -0.015689371 0.70407611 12500410
0.66834962 -0.0028192301 0.70129544 2764934
0.67443419 -0.0057568327 0.70442158 2896783
0.68450415 -0.0054364116 0.70659125 3488941
0.69455385 -0.0049701431 0.70650816 3488940
0.70467079 -0.0051819212 0.70635355 3686573
0.71484828 -0.0045097633 0.70629102 7764665
0.72470719 -0.0046994169 0.70668155 13356242
0.73357767 -0.0054180068 0.70641536 13355724
0.74056226 -0.0041843951 0.70283467 10658213
0.65931511 0.0092482194 0.70075196 7829367
0.66562641 0.0052761617 0.7035138 6908808
0.67504877 0.0046864701 0.70629835 3423143
0.68479133 0.0047297338 0.70646209 3489196
0.69462734 0.0045980066 0.70643562 3488940
0.70466417 0.0044634189 0.70635968 3489197
0.71482766 0.0052112248 0.70631069 3488939
0.72449613 0.0047936128 0.70647317 5594037
0.73186165 0.0037885457 0.70523828 7961772
0.65658313 0.016001264 0.70259583 9474192
0.66475958 0.014781294 0.70512092 11250867
0.67486876 0.015385964 0.70585489 6777767
0.68511134 0.015088715 0.7061398 3554987
0.6947071 0.015038569 0.70635629 3488939
0.7046299 0.01498558 0.70639318 3489197
0.71488744 0.014930404 0.70625353 3488941
0.72304547 0.013006095 0.70594072 3554468
0.64788789 0.026808444 0.70181191 10329500
0.65532267 0.025246371 0.70350349 11513775
0.66451788 0.025403464 0.70514351 10526880
0.67471546 0.025429506 0.70566261 10724260
0.68529481 0.025456863 0.70595533 8422312
0.69465065 0.025480317 0.7064119 4541359
0.70449656 0.025506243 0.70652342 3554734
0.71351266 0.024411315 0.70618683 3949480
0.64537531 0.035912745 0.70301926 10921637
0.65501499 0.035256162 0.70482039 10921638
0.66448689 0.035613354 0.70517653 10724259
0.67456561 0.035239443 0.70554382 10790052
0.68537617 0.034964293 0.70587331 12631997
0.69485629 0.035056505 0.70620871 12763852
0.70437288 0.034844607 0.70599532 8290742
0.71231878 0.033484817 0.70381606 9013655
0.6470871 0.043027315 0.70229125 10066071
0.65485108 0.046040133 0.70370203 10000536
0.66538787 0.045128927 0.70526391 10592673
0.67558998 0.044372845 0.70588952 11842482
0.68534452 0.044390298 0.70600271 13815239
0.69552267 0.044341393 0.70521361 14013646
0.70371151 0.043947399 0.70360613 12171445
0.65743721 0.052637789 0.70150304 8158332
0.66538519 0.054489922 0.70373732 9211020
0.67493737 0.05504933 0.70665741 12434876
0.68490785 0.054497931 0.7066794 14408405
0.69426227 0.054219387 0.70481646 14145235
0.70017391 0.05442825 0.70216596 11250601
0.65321088 0.067341618 0.7053746 7497832
0.66786772 0.061056834 0.70165873 7303023
0.67540354 0.063052148 0.70462126 10263707
0.68537921 0.065183453 0.70452952 11447980
0.69095111 0.063383073 0.70559335 11184809
0.66714948 -0.036860395 0.71585053 6225920
0.6858415 -0.037396148 0.71715993 7892588
0.68510956 0.0030640787 0.71852022 3489196
0.7245276 0.038526841 0.71637803 5199278
0.69690192 -0.033373035 0.72638071 7755349
0.68855929 0.039501563 0.72248507 9605778
