# .PCD v0.7 - Point Cloud Data file format
VERSION 0.7
FIELDS x y z rgb
SIZE 4 4 4 4
TYPE F F F U
COUNT 1 1 1 1
WIDTH 695
HEIGHT 1
VIEWPOINT 0 0 0 1 0 0 0
POINTS 695
DATA ascii
0.46919215 -0.42252535 0.62520719 3484974
0.46441397 -0.41478905 0.62743968 3880758
0.45806554 -0.40428087 0.62808502 3935252
0.46158904 -0.40998966 0.62643808 3484204
0.44909698 -0.39922115 0.62682414 2368548
0.4530361 -0.395946 0.62851816 3933454
0.44674355 -0.38447523 0.62736076 3672079
0.44207722 -0.3755573 0.62654847 3737102
0.43656564 -0.36567292 0.6238519 3737615
0.42925003 -0.35042754 0.62353158 3933197
0.43188763 -0.3564781 0.62608033 3998733
0.42415583 -0.34351385 0.62845981 3803152
0.4059138 -0.33588696 0.62993145 2236705
0.4029198 -0.32479134 0.62351644 2236962
0.41156551 -0.32258916 0.62841654 3607571
0.40720314 -0.31398702 0.62572289 4064269
0.40390909 -0.30464602 0.62302715 4390922
0.40139866 -0.29669803 0.62357783 4325386
0.40520871 -0.28538114 0.62749094 4853519
0.41371173 -0.28139582 0.62498534 4459797
0.41762215 -0.27899069 0.62586105 4589071
0.4247584 -0.27543303 0.62535518 4721428
0.43127498 -0.27146927 0.62572378 4523793
0.43650386 -0.26805645 0.62738431 4392207
0.44213814 -0.26436695 0.62963462 4326927
0.46420845 -0.41561824 0.6349045 4473666
0.45765918 -0.40447018 0.63550788 4395288
0.47151238 -0.40597495 0.63699383 3355443
0.4491511 -0.39044017 0.63897371 4456458
0.45233437 -0.39531174 0.63401204 4456458
0.46326455 -0.39289987 0.6331954 2236448
0.44648281 -0.38554206 0.63541615 4456458
0.43968925 -0.37358263 0.63680208 4456458
0.44171435 -0.3769944 0.63540578 4456458
0.43571988 -0.36575958 0.63374102 4588043
0.42796326 -0.35301951 0.63751054 4654092
0.43106809 -0.3581582 0.63625818 4916749
0.42346904 -0.34506696 0.63699031 4456458
0.41785556 -0.33484021 0.63568509 4260363
0.42982155 -0.33257464 0.63930619 4456458
0.41239136 -0.32480499 0.63468647 4391178
0.40698767 -0.31493998 0.63549221 4456458
0.4024038 -0.30626208 0.63537294 4456458
0.40134928 -0.29123062 0.63687897 4456458
0.40536565 -0.28665099 0.63412279 4983051
0.41221181 -0.28205997 0.63566566 4456458
0.41712588 -0.27847824 0.63500088 4456458
0.42536071 -0.27368963 0.63532591 4456458
0.43109331 -0.27046973 0.63505936 4456458
0.43598959 -0.26778251 0.63489401 4456458
0.44152302 -0.26476255 0.63534385 4391436
0.46403801 -0.42190865 0.64860272 4066323
0.46329948 -0.41625404 0.64484578 4338227
0.45658979 -0.40494835 0.64614785 4394004
0.44907165 -0.39141393 0.64475089 4456458
0.45204687 -0.396788 0.64534378 4456458
0.44452685 -0.38365859 0.64518052 4456458
0.42528147 -0.37352976 0.64704853 2302755
0.438627 -0.37357211 0.64575487 4456458
0.44257492 -0.37965316 0.64175618 4456458
0.41279817 -0.36149174 0.64268613 6498069
0.43447348 -0.3658849 0.64451569 5114126
0.42758203 -0.35367075 0.6458137 5706515
0.43106854 -0.35954329 0.64341605 5968915
0.42250556 -0.34447291 0.64463633 4654092
0.41680789 -0.3342053 0.6451425 4522251
0.40982935 -0.32097393 0.64190936 4456458
0.41223827 -0.32585615 0.64504081 4588043
0.40616739 -0.31479192 0.6457209 4456458
0.40147629 -0.30553943 0.64595753 4456458
0.40115434 -0.29092711 0.64293993 4456458
0.40605727 -0.28606033 0.64528328 5048843
0.41225928 -0.28125474 0.6448524 4522250
0.4169637 -0.27810833 0.64501679 4456458
0.42500767 -0.27366641 0.64490294 4456458
0.43112057 -0.2704455 0.64474064 4456458
0.43612501 -0.26777285 0.6451121 4456458
0.44140729 -0.26493517 0.64517909 4326413
0.43540886 -0.25820348 0.64522356 6108990
0.44057602 -0.42311016 0.65562397 3289650
0.46551669 -0.42041898 0.65643835 4004897
0.4552016 -0.41669017 0.65186131 4456458
0.46258253 -0.4164952 0.65538245 4328468
0.47668883 -0.41758385 0.65830302 4004897
0.45596719 -0.40583229 0.65588558 4456972
0.46237716 -0.40991795 0.65318024 4392720
0.44862872 -0.392804 0.65524393 4456458
0.45164877 -0.3982023 0.65573347 4456458
0.44395745 -0.38459623 0.65480071 4456714
0.43819448 -0.37442595 0.65450275 4588043
0.40538132 -0.36267471 0.653283 5706258
0.43260807 -0.36441076 0.65479219 5574417
0.42715624 -0.35457262 0.65495092 6955802
0.42221001 -0.34558812 0.65450364 5706258
0.41669211 -0.33574879 0.65567136 5114125
0.40843472 -0.32094833 0.65733236 4720653
0.41182113 -0.3266041 0.65435088 5048589
0.40530378 -0.3141712 0.65463918 4456458
0.40196511 -0.30528578 0.65394622 4456458
0.40015012 -0.29940557 0.65433544 4456458
0.40497345 -0.28548265 0.65536863 4983308
0.41176417 -0.2811147 0.65430665 4456714
0.41674513 -0.277998 0.65507507 4523022
0.42488635 -0.27362052 0.65495658 4456458
0.43109235 -0.27038461 0.65436107 4456458
0.42604607 -0.26021758 0.65318865 4522765
0.43577763 -0.26795906 0.6553511 4456458
0.44091159 -0.26530296 0.65469933 4456458
0.46772528 -0.42108136 0.66107929 4066323
0.45890734 -0.41097304 0.6616382 4456458
0.46296036 -0.41555277 0.66190547 4456458
0.44829899 -0.40030435 0.66613936 6235415
0.45427141 -0.40399694 0.6650942 4456458
0.44813785 -0.39371505 0.6661002 4786444
0.45219463 -0.3999958 0.66169292 4456458
0.44368863 -0.38581979 0.6644159 5246990
0.43809313 -0.37613669 0.66471499 5968914
0.41174567 -0.36095616 0.6682421 4785420
0.43246517 -0.36611685 0.66510689 6100500
0.42725071 -0.35687557 0.66507947 7284765
0.41813317 -0.34084642 0.66769093 6561302
0.42144006 -0.34649381 0.66500562 6956827
0.41505992 -0.3346059 0.66518432 6363667
0.40873125 -0.32273981 0.66657037 5776148
0.4113194 -0.32746109 0.66466177 5840403
0.40471649 -0.31492698 0.66492563 4588812
0.40063247 -0.30607051 0.66471481 4456458
0.40189573 -0.29184863 0.66615039 4522508
0.4058148 -0.28670454 0.66426331 5114379
0.41156933 -0.28175431 0.66455847 5051677
0.41670537 -0.27805486 0.66482472 6043197
0.42540386 -0.27385131 0.66534901 5381927
0.43122098 -0.27082789 0.66593081 5778225
0.43617934 -0.26798952 0.66528004 5514284
0.4409934 -0.26543018 0.6648314 4262161
0.45251817 -0.40304521 0.67597818 4456458
0.44753599 -0.39431652 0.67471808 4786444
0.43979728 -0.38103926 0.67539072 6630165
0.44284254 -0.38639122 0.67571396 5972498
0.43563652 -0.37370595 0.67523891 7086615
0.4288947 -0.36146829 0.67489409 7481629
0.43203729 -0.36709827 0.67468184 7151640
0.4249464 -0.35437211 0.6748991 7745824
0.41866195 -0.34276101 0.67631143 7551007
0.42142639 -0.34795815 0.6755622 7748130
0.41461745 -0.33489192 0.67464799 7551514
0.40809339 -0.32271585 0.67623699 5379088
0.4108676 -0.32775909 0.67464119 6894616
0.40402851 -0.31491163 0.67509478 4522507
0.40069079 -0.30851379 0.67430401 4456458
0.40135604 -0.29169396 0.6730966 4456458
0.40606061 -0.28602266 0.67512518 5180172
0.41101888 -0.28096861 0.67482871 5579819
0.4159686 -0.27847412 0.67495692 6175039
0.42491353 -0.27504173 0.67514724 5712433
0.43370163 -0.27148733 0.67500341 5183263
0.43813911 -0.26878789 0.6732986 6637130
0.44237557 -0.26714769 0.67568523 5449517
0.46595123 -0.42247102 0.68418735 4262932
0.43761179 -0.41417083 0.68021989 4331550
0.45658833 -0.41066056 0.68924737 4263446
0.45293665 -0.40516615 0.68680674 4391435
0.44749022 -0.39600623 0.68450987 4456714
0.43993211 -0.38268393 0.68316269 5049870
0.44238773 -0.38631493 0.68668979 4459535
0.43578288 -0.37560064 0.68470228 6364949
0.42922062 -0.36385268 0.68503708 7612701
0.43173307 -0.36864209 0.68613172 7414297
0.42444199 -0.35494626 0.68526644 7812129
0.41788426 -0.34251016 0.68598008 7882531
0.42029667 -0.34685826 0.68422973 7881252
0.41416967 -0.33523548 0.68475372 7684380
0.40821588 -0.32407296 0.6852138 5771792
0.41086349 -0.32913178 0.68590248 7023127
0.40324834 -0.31480581 0.68525875 4785420
0.40128714 -0.30719921 0.68500197 4391178
0.40532809 -0.28398144 0.68514961 5049100
0.41070646 -0.28058627 0.68511295 4655124
0.41557285 -0.27802947 0.68561417 5645612
0.42476413 -0.27406171 0.68555778 5645868
0.4332085 -0.27125046 0.68500358 4919322
0.43805251 -0.26955315 0.68521845 5250601
0.44370031 -0.26781684 0.68506664 4787735
0.46066859 -0.26571682 0.68328607 6042940
0.46295673 -0.25559145 0.68234342 6637901
0.45819408 -0.41280508 0.69449604 4262675
0.46026039 -0.41568547 0.69900948 4456458
0.44995803 -0.40035623 0.69447923 4456459
0.45359963 -0.40582174 0.69520777 4456458
0.44678995 -0.39552936 0.69518423 4654347
0.43769774 -0.38087735 0.69595957 6495252
0.44100532 -0.38652572 0.69476628 5510160
0.43410206 -0.37434077 0.69506389 7086103
0.42811778 -0.36365995 0.69476718 7678750
0.41516483 -0.35104474 0.69752407 6892567
0.42317787 -0.35471338 0.69619507 7812898
0.41753691 -0.34358492 0.69555312 7948322
0.42041835 -0.34881845 0.69328594 7947301
0.41303104 -0.33469355 0.69513214 7617819
0.40768635 -0.32436731 0.69500309 6232852
0.4105626 -0.32953742 0.69307995 7087384
0.40286604 -0.31533673 0.69554687 4785676
0.40140843 -0.30688313 0.6939621 4720658
0.40478343 -0.28425947 0.69527149 5115151
0.41095379 -0.28052795 0.69459277 5513513
0.41553718 -0.27797696 0.6949386 5579303
0.42426467 -0.2732262 0.69565034 6240316
0.43372005 -0.27072296 0.69262981 6968411
0.43703014 -0.26951179 0.69477999 5712948
0.44350451 -0.2682102 0.69386953 4523536
0.46380833 -0.42074704 0.70460969 4198937
0.45841813 -0.41268069 0.70309561 4457228
0.46184701 -0.41780415 0.70420265 4326670
0.4559291 -0.40905476 0.70056057 4456458
0.44530708 -0.39482328 0.70689666 5049615
0.43819046 -0.38342667 0.70539159 6497560
0.44305879 -0.38787115 0.70217025 5707025
0.45388615 -0.38983172 0.70795441 5247506
0.43372828 -0.37522331 0.70571089 6956312
0.42745879 -0.36388177 0.70457613 7744543
0.43032241 -0.36894339 0.70406801 7546395
0.422665 -0.35490358 0.70463014 7879203
0.41738302 -0.3448346 0.7054891 7882785
0.40960819 -0.33027542 0.70903975 7489314
0.41285819 -0.33585888 0.70444828 7817246
0.40712821 -0.32486033 0.70490056 6830623
0.40200946 -0.31496507 0.70569432 4985364
0.40493834 -0.28535035 0.70497143 5048588
0.41091186 -0.2805784 0.70497483 4523022
0.41588938 -0.27774146 0.70471758 5646384
0.42513621 -0.27259538 0.70514774 5249826
0.4477534 -0.27137867 0.70179403 6029326
0.43364275 -0.26829755 0.70578122 4456715
0.44256079 -0.26747945 0.70317107 5505551
0.45739031 -0.42430854 0.71445042 4391179
0.46531034 -0.42322564 0.71281064 4327184
0.46137637 -0.41745558 0.71616679 4456458
0.4473044 -0.40263468 0.71723211 4982541
0.4448548 -0.39509827 0.71370614 4852752
0.43747315 -0.38291135 0.714149 5709845
0.44057637 -0.38824886 0.71553874 5512471
0.43281901 -0.37494838 0.71483409 6035988
0.42720839 -0.36479959 0.71524221 7679518
0.41996366 -0.35064018 0.71211618 7947814
0.42245036 -0.35568765 0.71493256 7813923
0.41705036 -0.3453055 0.71529436 7683873
0.43528345 -0.3457067 0.71063232 5510161
0.40951213 -0.33069849 0.71599215 5773844
0.41212413 -0.33570215 0.71476418 6695193
0.40666226 -0.32501215 0.71482754 5379090
0.4162932 -0.32274842 0.71610534 7882530
0.40203905 -0.31517845 0.71557319 4522507
0.41139004 -0.31106931 0.71513641 5636623
0.40497768 -0.28550255 0.71464652 5181973
0.4110699 -0.2809307 0.71393991 7034459
0.41602817 -0.27762732 0.71482575 6373704
0.42481509 -0.27270955 0.71466988 6175039
0.43415797 -0.27966386 0.71317089 5183777
0.43402573 -0.26763067 0.71545923 5381413
0.44884866 -0.40283138 0.7244761 4456458
0.45054555 -0.40587845 0.72742295 4456458
0.44402647 -0.39511535 0.72506273 4522507
0.43710071 -0.38401356 0.72620827 4522507
0.4437941 -0.38830462 0.72272968 6301465
0.42970175 -0.37017912 0.7214601 7416093
0.43201858 -0.37490484 0.7249949 6299673
0.4502534 -0.37377778 0.72217941 4265501
0.42660418 -0.36462927 0.72514009 7353884
0.41965041 -0.35101637 0.72268146 7685155
0.42213416 -0.35600692 0.72462499 6499353
0.41649121 -0.34511766 0.72586781 7223836
0.40948018 -0.33142141 0.72608924 5706514
0.41198894 -0.33621624 0.7245847 6364439
0.40615851 -0.32478607 0.72498399 4654092
0.40220988 -0.31477246 0.72426552 4456458
0.41153973 -0.31203088 0.72468305 4719883
0.40023345 -0.3088541 0.72346818 4456458
0.40503305 -0.28431657 0.72464055 4919063
0.41100761 -0.2807613 0.72466934 6174781
0.41607234 -0.27777487 0.72450292 6109247
0.4250772 -0.27264643 0.72486436 4654865
0.43409562 -0.26760125 0.72566509 4391435
0.45310202 -0.41112411 0.73810071 4263445
0.44831112 -0.40305227 0.73576009 4456458
0.45224702 -0.40937707 0.73456848 4456458
0.44342613 -0.39500976 0.73568845 4456458
0.4370963 -0.3846094 0.73515815 4456458
0.44026339 -0.38963157 0.7320236 4456458
0.42947197 -0.37148991 0.73651618 5443857
0.43229452 -0.37636012 0.73482728 5443858
0.42637023 -0.36548305 0.73489696 6038549
0.41921359 -0.35139513 0.73519552 5314321
0.42178264 -0.3565273 0.73475963 4786445
0.41583547 -0.34462443 0.73573941 5973524
0.40940812 -0.33189854 0.73566151 4653836
0.41185993 -0.33664548 0.73460054 4918285
0.40610921 -0.32534665 0.73496038 4522251
0.40188465 -0.31641057 0.73415428 4456458
0.40000355 -0.30955034 0.73035574 4456458
0.40458262 -0.2848849 0.73513484 4588558
0.4113903 -0.28074613 0.73487216 5184034
0.41648498 -0.27781621 0.73488843 7166043
0.42486155 -0.27327168 0.73507798 6967893
0.4313947 -0.27082244 0.73756117 5580077
0.43592152 -0.26823944 0.7349031 4456458
0.44128752 -0.26684642 0.73730499 4196112
0.45590308 -0.43042767 0.7459805 4917007
0.45411152 -0.41356814 0.7461043 4392463
0.44745269 -0.40258962 0.7451936 4522250
0.45077461 -0.40789998 0.74387717 4456458
0.44273627 -0.3948065 0.7458573 4522250
0.43688285 -0.38471213 0.74455601 4456458
0.44007623 -0.3899402 0.74192017 4456458
0.42911446 -0.37079674 0.74545169 4456715
0.43217963 -0.37620142 0.74524987 4588043
0.42578381 -0.36479083 0.74462867 4720909
0.41921598 -0.35270053 0.7452963 4456458
0.42179391 -0.35685173 0.74486303 4456458
0.41618413 -0.34540248 0.74517781 4522763
0.40908688 -0.33175394 0.74466383 4456458
0.41177613 -0.33684975 0.74490601 4588555
0.40545771 -0.32475972 0.74521911 4456458
0.40160424 -0.31746286 0.74480522 4456458
0.40044689 -0.29064757 0.74630886 4456458
0.40500104 -0.28586125 0.745116 4786964
0.41164112 -0.28087598 0.74561954 5778226
0.41609976 -0.27802029 0.74512738 5579819
0.42474365 -0.27419376 0.74509054 4654608
0.43274099 -0.271164 0.7451815 4456458
0.43801305 -0.26921952 0.74484056 4456458
0.44193634 -0.26779675 0.74428338 4391435
0.45938149 -0.4215523 0.7549184 4917007
0.4618195 -0.42319146 0.75573343 4659487
0.4550409 -0.41538364 0.75544971 4785419
0.43542218 -0.40430671 0.7543782 5050391
0.44783261 -0.4038505 0.75458813 4719883
0.45067358 -0.4084433 0.75456125 4785419
0.46845466 -0.40096408 0.75494635 4918805
0.43964612 -0.39045846 0.75433517 4785419
0.44266647 -0.39551419 0.75524867 4785676
0.43621412 -0.38454342 0.75456816 4785676
0.42949063 -0.37150604 0.75664175 4917517
0.43193325 -0.37628919 0.75530231 4851468
0.40902844 -0.36816138 0.75842297 5315620
0.4260971 -0.36487189 0.75443029 4851212
0.41896504 -0.35090518 0.75400043 4654091
0.42163485 -0.35615063 0.75484395 4785676
0.41587946 -0.34493509 0.75477165 4785676
0.40875998 -0.3316935 0.75504392 4719884
0.41169697 -0.33713377 0.75477493 4720140
0.40513125 -0.32477719 0.75493854 4720141
0.40145662 -0.31778181 0.75512832 4851983
0.4009884 -0.29061508 0.7506181 4522507
0.40546218 -0.28569341 0.75438511 5778226
0.41126218 -0.28108659 0.75428301 5579562
0.41624835 -0.27807304 0.75478202 5447719
0.42500493 -0.27444378 0.75477248 5976633
0.43299252 -0.27124372 0.75499868 4522508
0.43789583 -0.26930395 0.75505 4456458
0.44159642 -0.26790816 0.75379032 4391692
0.4573485 -0.2557995 0.75158376 4391435
0.45330757 -0.41333783 0.76629645 4392976
0.44717625 -0.40340573 0.76529682 4918806
0.450629 -0.40881076 0.76382047 4522507
0.43961081 -0.3911157 0.76476371 5513770
0.44263911 -0.39607114 0.76517916 5183519
0.43612143 -0.38525727 0.76543099 5183520
0.42908365 -0.37178451 0.7657882 5183263
0.43148392 -0.37673733 0.76567066 5381669
0.4258754 -0.36509505 0.76525813 5315620
0.44495299 -0.36666185 0.76646233 5315363
0.4189432 -0.35172617 0.7648831 5051163
0.42159742 -0.35680491 0.7650755 5249312
0.41531616 -0.34482196 0.76498646 5381412
0.40878019 -0.33250722 0.76518297 4984599
0.41138488 -0.33737561 0.76459205 5513255
0.40490183 -0.32533085 0.76507765 5579303
0.40128204 -0.31798431 0.76493138 5777453
0.40514281 -0.28412479 0.76486963 5315876
0.41122198 -0.28060862 0.76484454 4720915
0.41593996 -0.27818233 0.76486373 4456458
0.42490879 -0.27419347 0.76523584 5514026
0.43254185 -0.27103451 0.76451272 5646126
0.43738776 -0.26899356 0.76570433 4456458
0.44093782 -0.26769948 0.76397741 4391693
0.45831743 -0.42211956 0.77566218 4265501
0.45367181 -0.4146224 0.77534699 4391436
0.44698811 -0.40381196 0.77471238 5250084
0.45169163 -0.40797257 0.77627569 4853014
0.43959168 -0.39111763 0.77495962 5579563
0.44233474 -0.39596954 0.77505326 5580333
0.4358449 -0.3845937 0.7748003 5315363
0.42887825 -0.37184381 0.77599782 5382185
0.43157926 -0.37690598 0.77505028 6373188
0.42549351 -0.36523035 0.77518475 5381926
0.41874391 -0.35229465 0.77555138 6439238
0.42161041 -0.35771045 0.77491975 5447720
0.41493362 -0.34509912 0.77487987 5646127
0.40845525 -0.33241084 0.77494484 5712433
0.41103786 -0.33741692 0.77460831 5646383
0.40449062 -0.32470417 0.77529883 5778739
0.40090415 -0.31769258 0.7746371 5712176
0.40487915 -0.28450069 0.77501082 5712691
0.41162831 -0.28116006 0.77492172 6770003
0.41602308 -0.27818298 0.77527654 6836567
0.42491385 -0.27423328 0.77534938 5844792
0.43215391 -0.27102163 0.77514887 5249571
0.42853972 -0.26139492 0.77258897 4196112
0.4372085 -0.2688171 0.77538496 4456458
0.44083509 -0.26728588 0.77543336 4456458
0.41251886 -0.25905672 0.77365422 5315877
0.4574483 -0.42183354 0.78511029 4589842
0.46120626 -0.42597201 0.78717744 4534580
0.45348978 -0.41527915 0.78471524 4456458
0.47255981 -0.41095927 0.78621918 4456458
0.44718635 -0.40497363 0.78465599 4919320
0.4385694 -0.39190868 0.78569299 5050906
0.4419629 -0.39588699 0.78433603 5183263
0.43572235 -0.38473496 0.7845872 5117213
0.4287636 -0.37233001 0.78632438 5051677
0.43158832 -0.37721419 0.78379726 5382184
0.44810295 -0.37418562 0.78262568 4786191
0.42492205 -0.3648158 0.78493989 5117471
0.41863614 -0.35266462 0.7847929 5117471
0.42102692 -0.35728231 0.78493124 4588814
0.41468322 -0.34500512 0.78501487 4786964
0.40856159 -0.333132 0.78559762 4654608
0.41107601 -0.33796167 0.78449243 4919321
0.40427932 -0.32476184 0.78475469 5051164
0.40099487 -0.31842914 0.78520203 5051164
0.42655146 -0.31356722 0.78751749 4654093
0.40487269 -0.28459102 0.78515548 5580333
0.41165435 -0.28061014 0.7853176 4853270
0.41674322 -0.27853078 0.78476322 4787220
0.42503449 -0.27520433 0.7849859 5910324
0.43378761 -0.27162683 0.7850697 4853271
0.43871436 -0.2694194 0.78398466 4456458
0.44104347 -0.26855224 0.78489959 4456458
0.45605469 -0.42014241 0.79402745 4851725
0.44947821 -0.41012734 0.798509 4653835
0.4521867 -0.41442621 0.79416251 4785675
0.44646671 -0.40461674 0.79490107 4851468
0.43899947 -0.39174205 0.79556602 4851726
0.44181764 -0.39656606 0.79493284 4917260
0.43504998 -0.38483509 0.79523891 4851211
0.42870289 -0.37298885 0.79591006 4719884
0.43117428 -0.37760505 0.79404598 4719884
0.42454255 -0.36482251 0.79475558 4654091
0.4183552 -0.35287115 0.79471242 4588299
0.42097768 -0.35795778 0.79533005 4654091
0.41421592 -0.34488121 0.79439139 4588043
0.4077386 -0.33295196 0.79583716 4785163
0.4106378 -0.33806235 0.7948941 4653835
0.40413213 -0.32537937 0.79497111 4653835
0.42619351 -0.32892466 0.79753655 4522250
0.40070954 -0.31864205 0.79491836 4653835
0.41111249 -0.29850629 0.79143435 4654092
0.4045189 -0.2852636 0.7951144 5447977
0.4123441 -0.28105062 0.79493791 4588558
0.41708115 -0.27879849 0.79487473 5646383
0.42481372 -0.2754862 0.79483789 5580334
0.43361557 -0.27173465 0.79339957 4522251
0.44235572 -0.27150577 0.79484612 6160655
0.45706388 -0.27374145 0.79067206 5046540
0.43698093 -0.26881087 0.79620981 4590867
0.44157457 -0.26886234 0.79094142 5572627
0.45555925 -0.42101672 0.80847108 4457485
0.44970918 -0.41088215 0.80526447 4456458
0.4523935 -0.41547677 0.80489701 4390922
0.44623831 -0.40489843 0.80525887 4456458
0.43907213 -0.39251766 0.80578142 4456458
0.44182494 -0.39720351 0.80453116 4456458
0.43492299 -0.38525233 0.8047365 4456458
0.42820817 -0.37282842 0.80516732 4588042
0.43103027 -0.37826791 0.80503935 4522506
0.42412996 -0.36491451 0.80520821 4588042
0.41808942 -0.35339177 0.80489427 4653835
0.42190781 -0.35837054 0.80604982 4720656
0.41341716 -0.34457463 0.8046627 4653834
0.40792921 -0.33399037 0.8042829 4654091
0.41031396 -0.33888087 0.80614734 4522250
0.40330338 -0.3249729 0.80485994 4653834
0.4000591 -0.31893685 0.8062833 4522250
0.40035376 -0.29040775 0.80584574 4522766
0.40485519 -0.28542563 0.80470687 5976632
0.41153097 -0.28071082 0.80486953 5910841
0.41641885 -0.27779892 0.80564702 5778226
0.42477101 -0.27264699 0.80617869 5513769
0.43127307 -0.27012968 0.80938971 4587531
0.42928839 -0.26959005 0.80473274 4456458
0.4333756 -0.26844245 0.80585927 4851726
0.45774838 -0.42285672 0.81535435 4723479
0.46169031 -0.42385578 0.8182565 4528922
0.44953048 -0.4111214 0.81629205 4456458
0.45284477 -0.41629231 0.81578642 4521994
0.44620234 -0.40537146 0.81486923 4456458
0.43875271 -0.39243576 0.81571388 4456458
0.44178492 -0.39767665 0.81427968 4456458
0.43441096 -0.38483384 0.81504714 4456458
0.42831516 -0.37366754 0.8149606 4456458
0.43075812 -0.37839264 0.81427503 4456458
0.42404014 -0.36523464 0.81515098 4456458
0.41807601 -0.3537108 0.81525433 4456458
0.42076048 -0.35876718 0.81552762 4456458
0.41343635 -0.34513402 0.81485796 4456458
0.40773144 -0.33450463 0.81477016 4456458
0.41034472 -0.33938584 0.81664217 4456458
0.40287003 -0.32488969 0.81497192 4456714
0.4112418 -0.32640454 0.81568259 8928328
0.40002215 -0.31936258 0.81900948 4720394
0.40057057 -0.30451331 0.81136483 4852756
0.40488082 -0.28451687 0.81507152 5777967
0.41125026 -0.28071064 0.81518847 6042679
0.42176357 -0.28412116 0.81517011 5048843
0.41609487 -0.27786878 0.81496 5645868
0.42499554 -0.27357164 0.814722 5116700
0.4325465 -0.27082911 0.81439066 5048331
0.43657511 -0.26911217 0.81421459 5180685
0.45292965 -0.41366261 0.82391673 5046284
0.44625705 -0.40479517 0.82610095 4521994
0.43880704 -0.39195481 0.82587552 4456458
0.44168428 -0.39678702 0.82588249 4719373
0.43482274 -0.38487798 0.82623363 4456458
0.42811891 -0.37333918 0.82541281 4456458
0.43115282 -0.37836605 0.82574642 4456458
0.42395303 -0.3649542 0.82523686 4456458
0.41839886 -0.35352412 0.82451147 4456458
0.42073998 -0.35828349 0.82484472 4456458
0.41381058 -0.34495783 0.8248831 4456458
0.40783113 -0.33411404 0.82478541 4456458
0.41062695 -0.33889768 0.82656938 4456458
0.40308699 -0.32449615 0.8250578 5709833
0.40116337 -0.31720936 0.82592517 6964486
0.40518761 -0.28455123 0.82488191 4456715
0.4114508 -0.2808871 0.82477456 4522251
0.41640487 -0.27788329 0.82518637 4456715
0.42461026 -0.27300933 0.82543218 4456715
0.4311018 -0.27046978 0.82105297 4653835
0.42957184 -0.26976752 0.82819802 4587531
0.43295816 -0.26858416 0.82545859 5312783
0.45897499 -0.42093506 0.83376414 4068891
0.46392164 -0.42303967 0.83765715 5965844
0.4560889 -0.4145788 0.83555061 4718603
0.46292004 -0.41748315 0.8386488 6553615
0.44822535 -0.40288466 0.83388931 4456458
0.45175388 -0.4070321 0.8361631 4456458
0.44427153 -0.39508778 0.83501405 4456458
0.43755037 -0.38407278 0.83404529 4456458
0.44126922 -0.38782817 0.83748478 4456458
0.46518874 -0.38073319 0.83777517 8201522
0.42878813 -0.371479 0.8334108 4390922
0.43301311 -0.37557766 0.83582205 4718602
0.49429798 -0.37057251 0.83764684 6361371
0.4266187 -0.36431992 0.83580416 6228494
0.43113115 -0.36624297 0.83930451 6094862
0.46609825 -0.36496663 0.83083892 6885145
0.4958986 -0.36903054 0.8328613 5447206
0.41886249 -0.35260597 0.83348536 5769485
0.42469084 -0.35530886 0.83722156 6686480
0.43051863 -0.35895503 0.83996809 6094862
0.47110921 -0.35091123 0.8389082 7471378
0.41649771 -0.34463608 0.83523172 7279121
0.42317075 -0.34527826 0.83859956 7544363
0.47683549 -0.34134516 0.83871979 7147803
0.48181087 -0.34669399 0.8361944 6427675
0.40838081 -0.33271086 0.83401549 6885904
0.41497651 -0.33515009 0.83661366 7342866
0.4218415 -0.33592126 0.83921278 7809335
0.47468138 -0.33564404 0.8361606 6950678
0.49094218 -0.33210012 0.83213747 7473172
0.405931 -0.32465297 0.83512455 7344914
0.41482076 -0.32498372 0.83819777 9061197
0.42063904 -0.32766014 0.83966476 8535624
0.46575025 -0.32361192 0.83850634 7341331
0.47188592 -0.32475305 0.83440292 7409687
0.40420485 -0.31515518 0.83703291 8204597
0.4133001 -0.31692073 0.83927542 9259349
0.45841211 -0.31424293 0.83916122 7864594
0.46209708 -0.3170799 0.83788723 7735060
0.40373313 -0.30446097 0.83958447 7406613
0.41384593 -0.30326074 0.83836836 6357006
0.45613763 -0.30616036 0.83782071 7079957
0.46024424 -0.30875748 0.83419657 4790558
0.4046022 -0.29474822 0.83813596 6946832
0.41298661 -0.29456884 0.83931804 7077904
0.42993298 -0.29585108 0.83686513 8072237
0.45419961 -0.29925013 0.83369303 6098969
0.4055126 -0.28606778 0.83501118 5439500
0.41416442 -0.28392717 0.83775067 6094862
0.42145693 -0.28011328 0.839993 6291471
0.44279084 -0.28438899 0.83940047 8328471
0.41702256 -0.27844933 0.8337965 4784139
0.42516881 -0.2756184 0.83541346 5439500
0.43453389 -0.27423 0.83683497 7147537
0.4410103 -0.27766067 0.83786166 7409687
0.43366453 -0.26935089 0.83151573 6428434
0.47841749 -0.43550938 0.84912694 4068891
0.46895167 -0.42053816 0.84048855 6489877
0.48594317 -0.42139062 0.84673446 7078675
0.45849591 -0.41133538 0.84068316 6881296
0.4656384 -0.4141559 0.84175944 6946832
0.47356933 -0.41350237 0.84357744 6817044
0.45582089 -0.40413427 0.84173733 7212315
0.46477976 -0.40507016 0.84308809 7340820
0.47456586 -0.40505368 0.84460521 7274513
0.4832688 -0.40344638 0.84613597 7078675
0.44744134 -0.39365104 0.84170943 6094862
0.4548032 -0.3949697 0.84276223 9058116
0.46524945 -0.39507496 0.84399998 9521492
0.47528711 -0.39490327 0.84559727 8530487
0.48495373 -0.39500302 0.84629393 7996946
0.49401566 -0.3937991 0.84485811 8326933
0.43935284 -0.38149515 0.84112138 4390922
0.44539678 -0.38459325 0.84273487 7806507
0.45509559 -0.38481578 0.84389001 8529717
0.46486485 -0.38524708 0.84485787 10115684
0.47491217 -0.38514543 0.84614849 8132647
0.48517925 -0.38478944 0.84572262 8720660
0.49492589 -0.38559613 0.84420496 7864851
0.50136685 -0.38748693 0.84215969 6427167
0.42186418 -0.37149191 0.84844422 4522250
0.43687072 -0.3742463 0.84183168 6225934
0.44453329 -0.37496582 0.84362841 9786206
0.45479822 -0.37496912 0.84472495 9388107
0.46522114 -0.37483039 0.84579313 8397360
0.47492689 -0.37517715 0.84602767 7667986
0.48458603 -0.375227 0.84520423 9049621
0.49224162 -0.37587804 0.84412879 7668243
0.42195234 -0.3610785 0.84763885 7281694
0.4354465 -0.36489135 0.84197509 7941433
0.44496024 -0.3648518 0.84411258 8067882
0.45503286 -0.36514473 0.84540576 9718873
0.46445036 -0.36506426 0.84598643 7603478
0.47472993 -0.36496031 0.84546751 8391443
0.48403388 -0.3655414 0.84469056 8194580
0.49038053 -0.36923468 0.84403002 6689310
0.42941439 -0.35099843 0.84041595 6225934
0.4346832 -0.35486239 0.84233826 8600390
0.44517621 -0.35503832 0.84440553 8993093
0.45511025 -0.35512286 0.84533286 9057603
0.46480826 -0.35493532 0.84547949 7536658
0.47508079 -0.35522485 0.84487396 8984085
0.4821288 -0.35645741 0.84387463 7735835
0.42807353 -0.34458333 0.84086108 7941690
0.4351086 -0.34500486 0.8429355 10448245
0.44541591 -0.34515247 0.84441221 9322828
0.45531732 -0.34489536 0.844993 7471121
0.46527818 -0.34494749 0.84486389 7865618
0.47408381 -0.34582621 0.84388357 8919063
0.4804827 -0.34940833 0.8416701 6557468
0.42627203 -0.33461577 0.84132439 9460322
0.43508634 -0.33505791 0.84314847 8926272
0.44493589 -0.33512676 0.84426695 7405842
0.45492905 -0.33504382 0.84464324 7536657
0.46506515 -0.33547863 0.84414029 8194836
0.47172347 -0.33718833 0.84145707 7341589
0.41979569 -0.3211799 0.84022164 7738915
0.42551368 -0.32493684 0.84187883 9458267
0.43554658 -0.32497793 0.84335649 8132647
0.44500828 -0.32499421 0.84415764 7405842
0.45455953 -0.32512394 0.84407705 7602451
0.4630554 -0.32651177 0.84195048 7471122
0.40961486 -0.31081015 0.84007335 9785945
0.41650411 -0.31364277 0.84073472 9390933
0.42508221 -0.31504011 0.84244823 8993864
0.43529153 -0.31513843 0.84335989 8330539
0.44499516 -0.31465232 0.84365982 7405585
0.45376492 -0.31577593 0.84214532 7799059
0.40653935 -0.30519313 0.84039283 7737120
0.4150337 -0.30510956 0.8410781 8729152
0.42442077 -0.30479249 0.84252232 9257550
0.43512049 -0.30530104 0.84247291 7734550
0.44523585 -0.30513802 0.8422783 7471121
0.45189816 -0.30564389 0.841416 7798802
0.40958518 -0.29686061 0.8436138 4653067
0.41786996 -0.29545382 0.84052116 7012368
0.42498028 -0.29515657 0.84242827 6946832
0.43465617 -0.29477096 0.84344649 7602193
0.44417742 -0.29529193 0.84193736 7667986
0.41931123 -0.28563449 0.84079421 6881295
0.42526793 -0.28510457 0.84152621 6946832
0.43449083 -0.28494185 0.84224898 7998226
0.44191927 -0.28785467 0.84093785 7996434
0.45338795 -0.28073177 0.84475142 7147803
0.42745513 -0.2796638 0.84000635 7012369
0.43393028 -0.2794944 0.84017307 7868178
0.46425176 -0.38062629 0.85941362 8260372
0.44052836 -0.37891263 0.85660231 5243660
0.46287966 -0.36113068 0.85279113 9194839
0.49362102 -0.34797272 0.85162717 7146005
0.40775919 -0.31783208 0.85659224 7340561
0.43696567 -0.31966347 0.85757238 7738915
0.45318291 -0.28814077 0.85816967 7536657
0.4638688 -0.4082506 0.86240101 7211802
0.4154942 -0.3018572 0.86453795 8131607
