# .PCD v0.7 - Point Cloud Data file format
VERSION 0.7
FIELDS x y z rgb
SIZE 4 4 4 4
TYPE F F F U
COUNT 1 1 1 1
WIDTH 384
HEIGHT 1
VIEWPOINT 0 0 0 1 0 0 0
POINTS 384
DATA ascii
0.44366822 0.055567697 0.62702 5861646
0.45454717 0.055230301 0.62724429 5664016
0.45676291 0.065342478 0.62807763 5730062
0.46429715 0.072038449 0.62640959 5400336
0.47391206 0.077044293 0.62601817 5730063
0.47986007 0.080328703 0.62487334 5466384
0.48476934 0.083356842 0.62552053 5730063
0.49244887 0.088141702 0.62580621 5730063
0.49810022 0.091461129 0.62573016 5729809
0.50423819 0.095052153 0.62470055 5333788
0.54503167 0.11542058 0.62752306 5268247
0.55250418 0.11851693 0.62671411 5267991
0.56358773 0.13355838 0.62096536 3355443
0.4532713 0.049827605 0.63764387 5067833
0.45388103 0.055591572 0.63393831 5861647
0.45755157 0.064336434 0.63381773 5927694
0.4614228 0.069581948 0.63480878 5927694
0.46666712 0.072332688 0.63508672 5927694
0.47519812 0.076990388 0.63508034 5927694
0.48004073 0.079693183 0.6387316 5927694
0.47983015 0.080059841 0.63062203 5927694
0.48512962 0.083184592 0.63578254 5927694
0.49264979 0.087936744 0.63592058 5993234
0.4974865 0.091145381 0.63372844 6255646
0.50445372 0.095398404 0.63523334 6321186
0.51000756 0.098826043 0.63416666 6124566
0.51592219 0.10211832 0.63539803 5663257
0.52499425 0.10727552 0.63747597 6057257
0.53100383 0.10988342 0.63372743 5333026
0.50573128 0.11675663 0.63977224 5927694
0.53655338 0.1123616 0.63496971 5795095
0.54579496 0.11625984 0.63566548 5927694
0.55251884 0.11925348 0.63910615 4476958
0.44900948 0.054320924 0.64766115 5530658
0.4540706 0.053434201 0.64406621 5264955
0.46263814 0.051475953 0.64173812 4671303
0.43587416 0.063239165 0.64283407 3092271
0.45575121 0.063940965 0.64555019 5927438
0.46213359 0.068823174 0.64496332 5927694
0.46764237 0.07185673 0.64512032 5927694
0.47462416 0.075943395 0.64509881 5927694
0.48035112 0.079472691 0.64380568 5927694
0.48565874 0.083159901 0.64508289 5993233
0.49339035 0.088064127 0.64441341 6518314
0.49836561 0.091285735 0.64348739 7174473
0.50497633 0.095537834 0.64450645 6518313
0.51164389 0.09973684 0.64688933 6452518
0.51608419 0.10231465 0.64399737 6386981
0.52452213 0.10700842 0.64583367 6518057
0.53372627 0.11172888 0.64492905 6058771
0.54481852 0.11657619 0.64521587 5664016
0.46223658 0.048069075 0.65898556 3158064
0.44926012 0.054277461 0.65419245 5795349
0.45229232 0.058030851 0.65558857 5993486
0.45667243 0.063466154 0.65448201 6059278
0.46217185 0.067842953 0.65535522 5927694
0.46794054 0.071685143 0.65489203 5927694
0.47555134 0.07653334 0.65464586 5927694
0.48516139 0.082983397 0.65552044 6058772
0.49299097 0.088060983 0.65439725 6846265
0.49820951 0.091431975 0.65465134 6649393
0.50564629 0.0962836 0.65538001 5993234
0.51388443 0.096323319 0.6562531 4147996
0.54986465 0.099869043 0.65401632 6058772
0.5155232 0.10222756 0.65581667 6452518
0.52480227 0.10721555 0.65489978 6452520
0.53449738 0.11217742 0.6536364 6058772
0.54235697 0.11611569 0.65444994 5927694
0.45688254 0.047793962 0.66494513 5265213
0.46306944 0.049516287 0.66172963 4210752
0.44979787 0.053552072 0.66345358 5597463
0.45130914 0.054792978 0.66640186 5597462
0.45693961 0.062860906 0.66509259 5927694
0.46252877 0.067533307 0.66544586 5927694
0.46694902 0.070997909 0.6653915 5927694
0.47471312 0.076087996 0.66455811 5927694
0.48053014 0.07985878 0.66800851 5993231
0.48456696 0.082608014 0.66496611 6058773
0.49250957 0.087860361 0.66558415 6518057
0.49741596 0.091020972 0.66390115 6583852
0.50507414 0.095777847 0.66500241 5993232
0.51363891 0.092107639 0.66423041 5993232
0.51540846 0.10215672 0.66528267 6452519
0.52519399 0.10689317 0.66441196 6255647
0.5344398 0.11252035 0.66516107 5927695
0.5437575 0.11748385 0.66447705 5400336
0.43762171 0.041400447 0.67250222 5333281
0.46299005 0.049234148 0.67394096 3223857
0.45188069 0.05478783 0.67552096 5201187
0.46794048 0.052815169 0.67941284 5135396
0.45688584 0.06261798 0.67610627 5927694
0.4627741 0.067911729 0.67524117 5927694
0.48903257 0.067230567 0.67267346 6518057
0.46777105 0.071509734 0.67440766 5927694
0.47429392 0.075647101 0.67491466 5927694
0.4802624 0.079572335 0.67371988 5993231
0.48527163 0.082894042 0.67527246 6058773
0.49265295 0.087703735 0.67492354 6714930
0.49826467 0.091425389 0.67520475 6124310
0.50447613 0.095463827 0.6749571 5927695
0.51081514 0.099504821 0.67477793 6058773
0.51593715 0.10268204 0.6756922 6518315
0.52421224 0.10736416 0.67520285 6058773
0.52957278 0.11022477 0.67334366 5927694
0.53547001 0.1134654 0.6753701 5927694
0.54190809 0.11689406 0.67393845 5927694
0.45636374 0.04871168 0.68959868 3815994
0.44992876 0.051630385 0.68147361 4408382
0.45250294 0.054075759 0.68524837 4937256
0.477074 0.059181862 0.68994564 5662497
0.45760971 0.062063474 0.68477613 5927438
0.46303231 0.067237511 0.68441576 5927694
0.46861091 0.071777835 0.68400341 5927694
0.47558552 0.076431625 0.68463695 5927694
0.48436117 0.073275007 0.68080133 5993231
0.48555461 0.083042674 0.68476051 6190105
0.4926939 0.087895952 0.68527204 6452518
0.50667894 0.088693313 0.68242598 6581546
0.47251213 0.093393132 0.68356621 5927438
0.49750471 0.091086432 0.68512303 5927695
0.50478411 0.095812522 0.68553269 5927694
0.51002055 0.098974004 0.68239987 5993232
0.51546866 0.10238439 0.68506593 5993232
0.52410883 0.10745185 0.68513083 5927694
0.53449744 0.11314462 0.68574691 5927694
0.54313779 0.11724855 0.68537378 5927441
0.45455897 0.049256586 0.69500148 4211008
0.4499976 0.052732605 0.69441682 4409143
0.45187324 0.055170912 0.69572705 5531164
0.45668676 0.062743172 0.69469118 5927438
0.46217251 0.067801885 0.69505823 5927694
0.45278201 0.074351162 0.69763726 4539717
0.467417 0.071386613 0.69450355 5927694
0.47428894 0.075823061 0.69488573 5927438
0.48031688 0.079932153 0.69695789 5927695
0.48491892 0.082882084 0.69446486 5993231
0.49284297 0.088101126 0.69529426 5927695
0.49807134 0.091458 0.694179 5927694
0.50462717 0.095639125 0.69489181 5927694
0.51120299 0.099707484 0.69604939 5927694
0.51603711 0.10265201 0.69474381 5993229
0.52480543 0.10767754 0.69490004 6189836
0.52960896 0.1103312 0.69378591 6124300
0.53463763 0.11288682 0.6936698 6848014
0.54113328 0.114509 0.69117695 7374608
0.45493677 0.047904275 0.70383137 4539969
0.45370147 0.055545498 0.70328557 5860887
0.45564625 0.063299164 0.70479846 5927950
0.46217975 0.06810908 0.70546877 5927694
0.46761113 0.071699478 0.70437884 5927694
0.47547609 0.076910414 0.70548069 5927694
0.48543018 0.083420821 0.70486319 5927694
0.49298182 0.088300794 0.70516223 5927693
0.49793625 0.091472745 0.7047928 5993229
0.50519925 0.09598586 0.70516044 6386443
0.51029241 0.099164821 0.70356786 6255372
0.51582623 0.10247925 0.70476586 6581266
0.52481329 0.10748833 0.70515984 6382384
0.53495413 0.11305816 0.70424145 5396778
0.54329503 0.11735226 0.70707995 5663257
0.45457202 0.048523664 0.71422124 4671303
0.46040761 0.048311032 0.71140075 4539717
0.4524096 0.055215206 0.71535462 5267487
0.45585677 0.062909909 0.71473092 5927694
0.46396175 0.067654721 0.71469021 5927694
0.46813297 0.071274526 0.71483237 5993229
0.47436744 0.075792916 0.71499413 6058765
0.48462522 0.083133392 0.7152487 6517005
0.49261808 0.088248305 0.7150411 6252313
0.49754915 0.09123496 0.71446037 6646048
0.50541246 0.096005917 0.71480232 6645058
0.51173949 0.099849425 0.71761835 7960952
0.51525605 0.10197118 0.71428806 6974052
0.52378535 0.10686542 0.71510947 7105643
0.52951229 0.1101464 0.71740198 6382175
0.53490293 0.11325678 0.71457183 5660726
0.54298711 0.11740246 0.716012 4609565
0.45461527 0.04856734 0.72439939 4079166
0.45273456 0.05496522 0.72512507 5267487
0.45636785 0.062491115 0.7249586 5927694
0.4627614 0.067771137 0.72516513 6254348
0.46836346 0.071383432 0.7257778 6251032
0.47488219 0.076096334 0.72493875 6448175
0.48278487 0.077911884 0.7262761 6581574
0.48540506 0.083460912 0.72478312 6776663
0.4937005 0.088685162 0.72501975 7829366
0.49827135 0.091549374 0.72642875 8092539
0.50447744 0.095478803 0.72450024 7829366
0.51074481 0.099300854 0.72497547 7237487
0.51663852 0.10266185 0.72516787 6250335
0.5254786 0.10768127 0.72480112 5592404
0.53507113 0.1130564 0.7247799 5463602
0.54406768 0.11621139 0.72669816 6388240
0.45473868 0.048428353 0.73370677 4671303
0.46286702 0.04735389 0.73287499 3618615
0.45340025 0.054576244 0.7356652 5267488
0.45775601 0.06272912 0.73550844 5927438
0.46303496 0.067862973 0.73468846 5070864
0.46797884 0.071736187 0.73468208 6645343
0.47506371 0.075869843 0.73531818 7631988
0.48036695 0.079550706 0.73380393 8026746
0.46028858 0.088422887 0.73754066 7829366
0.48537731 0.083187789 0.73458761 7039851
0.49248552 0.088038914 0.73504561 6513250
0.49751779 0.091210745 0.73539656 5723991
0.50530082 0.095996015 0.73489177 5855577
0.51180774 0.099916279 0.73903167 6710886
0.51550311 0.10196456 0.73426425 5987163
0.52410895 0.1068212 0.73506498 6645092
0.532363 0.11139148 0.73411137 6053967
0.45567796 0.048768766 0.7462033 4473924
0.44186866 0.05807779 0.74506307 5927694
0.45538086 0.054597899 0.74380088 5266978
0.45842347 0.063253097 0.74460936 5927438
0.46404839 0.068274811 0.74526501 5202201
0.46837655 0.071176097 0.74343771 6119258
0.47498834 0.075812809 0.7453599 6579301
0.48450971 0.082860775 0.7452051 5789784
0.49264875 0.088050991 0.74540788 6316128
0.49783102 0.091171943 0.74437374 5789784
0.50510377 0.095528439 0.74497628 6513507
0.51154017 0.09948764 0.74520433 6908008
0.51666832 0.10265282 0.74491173 7895159
0.52563936 0.10785778 0.74483198 7763829
0.53437078 0.112765 0.74564666 5725992
0.54319531 0.11752586 0.74824643 5856777
0.54950881 0.13329142 0.74193412 5924363
0.45398408 0.04911872 0.7579273 4210752
0.4524987 0.054469727 0.75602168 4804911
0.45727393 0.063061923 0.75488174 5927438
0.46378535 0.067877688 0.75505698 5334038
0.46842396 0.070998214 0.7538591 6908263
0.47466648 0.075400122 0.75521141 8092793
0.48124814 0.079878628 0.75598663 8289918
0.48527908 0.082690671 0.75474042 7500402
0.49324992 0.08765351 0.7550115 7039851
0.4983592 0.090791374 0.75523448 7105644
0.50472522 0.094680898 0.75545049 7039579
0.51147699 0.098866411 0.75449896 6973778
0.51684636 0.10213041 0.75462645 6776634
0.52509439 0.10709859 0.7546978 6448666
0.5363875 0.10237463 0.75961185 6778382
0.53436172 0.11283462 0.75553662 6385417
0.5432682 0.11797982 0.75466996 5991948
0.45561817 0.047571067 0.76452112 4408131
0.46084827 0.045723911 0.76545727 4144959
0.45247638 0.054942638 0.76556242 4739118
0.45668328 0.062524065 0.76505351 5927438
0.46347594 0.067546412 0.76524472 5268751
0.46851933 0.070992664 0.76572138 6251093
0.47525579 0.075424895 0.76536739 7303009
0.48135287 0.079423591 0.76493984 6973775
0.48627764 0.082569741 0.76508814 6710843
0.49333149 0.08707504 0.76512104 6448415
0.49833626 0.090242162 0.76434022 6317075
0.50444603 0.094075136 0.76524049 6253321
0.51221311 0.098941341 0.76490223 6254603
0.51712924 0.1025412 0.76535285 6058508
0.52570873 0.10686809 0.76509714 5992973
0.50083482 0.111853 0.76695722 6253595
0.53491694 0.11290082 0.76545179 5927694
0.54196537 0.11718253 0.76499528 5728269
0.45364118 0.048570648 0.775204 4276545
0.45457178 0.054568842 0.77485055 4870955
0.45740324 0.061966605 0.77478844 5993486
0.46418047 0.066685617 0.77597028 6255115
0.44855633 0.076795898 0.77539515 5068590
0.46865451 0.070124313 0.77395475 6316554
0.47514853 0.074430607 0.77477753 6252810
0.48228002 0.077910595 0.77472633 6648609
0.48596346 0.08180593 0.77510327 6124044
0.49408093 0.087137841 0.77479917 5927437
0.49975643 0.090896577 0.77812409 5927694
0.50496233 0.09424118 0.77498448 5927694
0.51182526 0.098520018 0.77428037 5927694
0.48639241 0.10335022 0.77733839 6058765
0.51679844 0.10155794 0.77542931 5993229
0.52487934 0.10631672 0.77512515 5927693
0.5355041 0.11234688 0.77466142 6058765
0.54275095 0.11653989 0.77480769 6189580
0.45683104 0.048095852 0.78384274 4671303
0.46263754 0.047977906 0.78637421 4802889
0.45577511 0.055746593 0.78516513 5333027
0.46651849 0.05200199 0.78253174 4144959
0.45805186 0.063903816 0.78517777 6977841
0.46416807 0.065335818 0.78481072 5927694
0.46976882 0.070854962 0.78895628 5927694
0.4746705 0.074113049 0.78511697 5927694
0.48190421 0.078981817 0.78542584 5927694
0.51941407 0.075860873 0.78802067 5925901
0.4871664 0.082464285 0.78512949 5927694
0.494396 0.087285988 0.78477901 5927694
0.4981586 0.091108315 0.78534329 6123550
0.50545037 0.094311193 0.78532094 5993229
0.51282799 0.098912738 0.78540862 6320908
0.5176037 0.1018452 0.78510195 6714377
0.52473313 0.10616565 0.7851963 7173382
0.53075325 0.10964172 0.78461337 7632644
0.52009946 0.11237474 0.78607774 6909784
0.53515649 0.1121432 0.78469044 7566852
0.54178542 0.11578492 0.78390658 7434500
0.5420686 0.12105478 0.78596568 6250523
0.45754051 0.048461478 0.79706603 5197904
0.46174496 0.047058079 0.79618442 3026478
0.45541424 0.055110496 0.79444325 5069096
0.44972619 0.060236689 0.79288608 5927438
0.45994782 0.060984798 0.7920996 5927694
0.46430579 0.065358207 0.7949872 5927694
0.46974012 0.070608296 0.79437423 5927694
0.47491029 0.073989138 0.79566348 5993229
0.48129946 0.078471392 0.79501641 6189836
0.52243423 0.074716173 0.79457748 8889388
0.48689842 0.082237288 0.79515421 6648841
0.49483851 0.087314554 0.79512972 7239174
0.49912065 0.090073369 0.79085058 6058766
0.504592 0.093595952 0.79547799 7829251
0.51202917 0.098325275 0.79463524 7894531
0.50750893 0.10025588 0.79803771 6844448
0.51701385 0.10144044 0.79518032 7435016
0.52490497 0.10626182 0.79510218 6514963
0.53430116 0.10309173 0.79256922 4408889
0.53516859 0.11205177 0.79334283 5989659
0.54378861 0.11580449 0.79295331 5529131
0.55477571 0.11766737 0.79948395 6296843
0.45656136 0.048899464 0.80572319 8619139
0.4611043 0.046611439 0.80514199 4144959
0.4564091 0.054589201 0.8053084 7436361
0.48034534 0.059264719 0.80642581 7108924
0.45862564 0.061141487 0.80674702 7767563
0.4648889 0.065304056 0.8068397 9012994
0.47044498 0.068651192 0.80933446 9735681
0.48641786 0.064931229 0.80866462 6842726
0.49315673 0.068178542 0.80778086 6316382
0.47493285 0.072697863 0.80560285 8289282
0.4827958 0.077219009 0.80675918 8027403
0.49308094 0.07104677 0.80974305 6579300
0.50484717 0.074410036 0.80833089 6186565
0.51158357 0.078888535 0.80778551 9085756
0.48695263 0.081270732 0.80513269 8290053
0.49460888 0.0855693 0.80635673 7240465
0.50195485 0.088698395 0.80893517 5264705
0.51655877 0.084128298 0.80832386 9284147
0.52422243 0.08781071 0.80739713 9088288
0.50540811 0.092862099 0.80590767 5594670
0.5135259 0.09750957 0.80664629 4540219
0.52489918 0.091508307 0.80927867 9548835
0.53486109 0.095882118 0.80742961 9944860
0.5412873 0.09822844 0.80675381 10204491
0.51735497 0.10078713 0.80370021 4408889
0.52531415 0.10451808 0.80494297 4210750
0.53405929 0.10758644 0.80631292 5067323
0.54475415 0.10272356 0.80882055 9348641
0.55110753 0.10655458 0.80967385 4072716
0.53741151 0.11223057 0.80404711 4342337
0.54260206 0.11443438 0.80636132 4210751
0.55166113 0.11428045 0.80700177 4728594
0.45935118 0.049443647 0.81158352 6842472
0.46196875 0.049324531 0.8106696 5131854
0.45895609 0.05462395 0.81230348 8420403
0.4641909 0.056102943 0.81334871 10789137
0.47126436 0.058451563 0.81384689 10397192
0.46642545 0.062132183 0.81099772 11840512
0.4742251 0.065061189 0.81271309 10003214
0.48275185 0.066657498 0.8122102 7435114
0.47751963 0.071171947 0.81151634 8820750
0.4852508 0.074431963 0.81219792 6516034
0.4948144 0.075849853 0.81333816 6316384
0.50323629 0.077542633 0.81330389 7040612
0.49644452 0.082014106 0.81263983 5329737
0.50470603 0.085611701 0.81355017 5592405
0.51283216 0.087319799 0.81227607 7304542
0.5087629 0.091173716 0.81103599 4802889
0.51519084 0.094252937 0.81222939 5526864
0.52417582 0.096672259 0.81159812 7899711
0.5317117 0.098648161 0.81102127 9680423
0.52685088 0.10163477 0.81278235 5725000
0.53536665 0.10528167 0.81225991 6648887
0.54416078 0.10710189 0.81163621 7172624
0.55152136 0.10841211 0.81061411 4530689
0.54520249 0.11178518 0.81185114 4469280
0.47521177 0.049201339 0.82513911 9540615
0.48477224 0.076901712 0.82807815 6777676
0.54856426 0.10823157 0.82889497 10204491
0.48661664 0.060862973 0.83165342 5922884
